NCOLS 220
NROWS 32
XLLCORNER 420821.519902
YLLCORNER 4416617.22541
CELLSIZE 10 
NODATA_value -3.4e+38 
3195.02905273438 3191.27709960938 3187.7802734375 3184.52124023438 3181.4951171875 3178.91625976562 3176.62744140625 3174.41455078125 3172.5048828125 3171.1982421875 3170.45581054688 3169.85864257812 3169.248046875 3168.63891601562 3168.01342773438 3167.28466796875 3166.54833984375 3165.91772460938 3165.25024414062 3164.435546875 3163.65576171875 3162.91040039062 3162.09838867188 3161.15063476562 3160.14892578125 3159.24462890625 3158.38037109375 3157.5107421875 3156.66870117188 3155.8427734375 3154.9150390625 3153.94970703125 3153.08544921875 3152.18994140625 3151.14184570312 3150.080078125 3149.16381835938 3148.12573242188 3146.74536132812 3145.46264648438 3144.36865234375 3143.24169921875 3141.91333007812 3140.31103515625 3138.5029296875 3136.10717773438 3132.85180664062 3129.58178710938 3126.55517578125 3123.12036132812 3119.296875 3115.68823242188 3112.10400390625 3108.18627929688 3104.55297851562 3101.931640625 3100.12475585938 3098.53393554688 3097.01391601562 3095.57421875 3093.87744140625 3091.7607421875 3089.666015625 3087.9013671875 3086.23803710938 3085.00390625 3084.38891601562 3083.91137695312 3083.3408203125 3082.671875 3081.90478515625 3080.89086914062 3079.40966796875 3077.68994140625 3075.9990234375 3074.1162109375 3071.87451171875 3069.85229492188 3068.38891601562 3066.87451171875 3065.06372070312 3063.25122070312 3061.49609375 3059.5673828125 3057.37255859375 3055.02734375 3052.54638671875 3049.50952148438 3045.91137695312 3042.20654296875 3038.55737304688 3034.9677734375 3032.83374023438 3032.16650390625 3032.068359375 3032.15454101562 3032.05029296875 3031.72534179688 3031.15087890625 3030.55395507812 3030.29418945312 3030.35205078125 3030.52099609375 3030.52026367188 3030.12939453125 3029.37133789062 3028.2294921875 3026.88525390625 3025.59301757812 3024.341796875 3022.58227539062 3020.15991210938 3017.9345703125 3015.96484375 3013.99682617188 3012.24340820312 3010.86889648438 3009.97436523438 3009.78637695312 3009.97802734375 3010.2646484375 3010.28369140625 3009.78833007812 3009.21240234375 3008.53686523438 3007.548828125 3006.22143554688 3004.84252929688 3003.36376953125 3001.70336914062 3000.10131835938 2998.67016601562 2997.08862304688 2994.91967773438 2992.45336914062 2990.14599609375 2987.63598632812 2984.65893554688 2981.54248046875 2978.7470703125 2976.62890625 2975.75390625 2975.44799804688 2975.21655273438 2975.01953125 2974.83081054688 2974.62524414062 2974.37353515625 2973.90600585938 2973.26098632812 2972.55297851562 2971.66870117188 2970.52709960938 2969.32641601562 2968.24267578125 2967.10766601562 2965.80688476562 2964.25708007812 2962.50610351562 2960.76928710938 2959.5400390625 2958.93359375 2958.78662109375 2958.93090820312 2959.20825195312 2959.49536132812 2959.72485351562 2959.92065429688 2960.109375 2960.24047851562 2960.2734375 2960.06079101562 2959.78198242188 2959.67553710938 2959.75268554688 2960.15771484375 2960.90380859375 2961.8330078125 2962.833984375 2963.83447265625 2964.6416015625 2965.0087890625 2965.15991210938 2965.34497070312 2965.509765625 2965.38110351562 2964.98681640625 2964.45288085938 2963.65844726562 2962.66235351562 2961.56005859375 2960.4189453125 2959.34326171875 2958.06689453125 2956.57983398438 2955.17553710938 2953.82983398438 2952.17431640625 2950.31469726562 2948.5029296875 2946.78198242188 -3.4e+38 -3.4e+38 -3.4e+38 -3.4e+38 -3.4e+38 -3.4e+38 -3.4e+38 -3.4e+38 -3.4e+38 -3.4e+38 -3.4e+38 -3.4e+38 -3.4e+38 -3.4e+38 -3.4e+38 -3.4e+38 -3.4e+38 -3.4e+38 -3.4e+38
3197.94873046875 3194.63232421875 3191.18969726562 3187.49243164062 3184.03442382812 3181.35815429688 3179.28979492188 3177.2353515625 3175.35009765625 3174.0322265625 3173.19384765625 3172.49755859375 3171.85986328125 3171.25610351562 3170.68701171875 3170.02661132812 3169.33471679688 3168.72729492188 3168.1142578125 3167.35620117188 3166.62426757812 3165.947265625 3165.21044921875 3164.36865234375 3163.51879882812 3162.73291015625 3161.95458984375 3161.18310546875 3160.42602539062 3159.67016601562 3158.84130859375 3157.96264648438 3157.15673828125 3156.29809570312 3155.28002929688 3154.27587890625 3153.33569335938 3152.20092773438 3150.72241210938 3149.294921875 3148.03271484375 3146.77124023438 3145.3125 3143.50952148438 3141.453125 3138.97973632812 3136.03930664062 3132.98999023438 3129.89233398438 3126.20825195312 3122.193359375 3118.52587890625 3114.83959960938 3110.80395507812 3107.400390625 3105.15844726562 3103.40087890625 3101.767578125 3100.30419921875 3098.95971679688 3097.27465820312 3094.97998046875 3092.75 3090.80224609375 3088.87890625 3087.5029296875 3086.78076171875 3086.2138671875 3085.611328125 3084.9775390625 3084.36669921875 3083.5205078125 3082.09033203125 3080.3564453125 3078.72094726562 3076.95166015625 3074.81713867188 3073.01611328125 3072.04711914062 3070.91040039062 3069.17041015625 3067.30126953125 3065.525390625 3063.56225585938 3061.25341796875 3058.80810546875 3056.42016601562 3053.69262695312 3050.63452148438 3047.55053710938 3044.07250976562 3040.19213867188 3037.54760742188 3036.68188476562 3036.58666992188 3036.57543945312 3036.52880859375 3036.24975585938 3035.67846679688 3035.04516601562 3034.712890625 3034.970703125 3035.32983398438 3035.21923828125 3034.9130859375 3034.39013671875 3033.29663085938 3031.87280273438 3030.61547851562 3029.45922851562 3027.91357421875 3025.826171875 3023.72534179688 3021.5361328125 3019.16723632812 3017.06420898438 3015.42236328125 3014.45654296875 3014.482421875 3014.86499023438 3015.25903320312 3015.3662109375 3014.88598632812 3014.28149414062 3013.64965820312 3012.57348632812 3010.92797851562 3009.34716796875 3007.83520507812 3006.12768554688 3004.416015625 3002.89624023438 3001.22021484375 2998.9462890625 2996.46362304688 2994.15380859375 2991.60400390625 2988.578125 2985.38598632812 2982.61303710938 2980.5576171875 2979.71533203125 2979.41235351562 2979.19067382812 2978.970703125 2978.7451171875 2978.53515625 2978.2158203125 2977.623046875 2976.87133789062 2976.01245117188 2974.91015625 2973.6142578125 2972.3466796875 2971.23974609375 2970.04907226562 2968.60302734375 2966.96997070312 2965.1953125 2963.4443359375 2962.435546875 2962.26977539062 2962.36206054688 2962.61840820312 2962.94262695312 2963.22607421875 2963.51025390625 2963.85205078125 2964.21411132812 2964.55639648438 2964.74560546875 2964.69311523438 2964.58447265625 2964.47924804688 2964.36889648438 2964.39306640625 2964.88745117188 2965.75561523438 2966.68969726562 2967.517578125 2968.14819335938 2968.50732421875 2968.673828125 2968.71655273438 2968.62475585938 2968.39453125 2967.88061523438 2967.12255859375 2966.19653320312 2965.15185546875 2963.92919921875 2962.53833007812 2961.2294921875 2959.75952148438 2958.07885742188 2956.4013671875 2954.84033203125 2952.951171875 2950.85595703125 -3.4e+38 -3.4e+38 -3.4e+38 -3.4e+38 -3.4e+38 -3.4e+38 -3.4e+38 -3.4e+38 -3.4e+38 -3.4e+38 -3.4e+38 -3.4e+38 -3.4e+38 -3.4e+38 -3.4e+38 -3.4e+38 -3.4e+38 -3.4e+38 -3.4e+38 -3.4e+38 -3.4e+38
3200.69287109375 3197.658203125 3194.62524414062 3190.93286132812 3187.01147460938 3184.005859375 3182.00732421875 3180.1826171875 3178.44946289062 3177.2412109375 3176.35888671875 3175.46875 3174.724609375 3174.1162109375 3173.52099609375 3172.86279296875 3172.18359375 3171.60986328125 3171.00610351562 3170.27661132812 3169.58618164062 3168.97265625 3168.27319335938 3167.49951171875 3166.74340820312 3166.02465820312 3165.28686523438 3164.55297851562 3163.8623046875 3163.19458007812 3162.4580078125 3161.6865234375 3160.98315429688 3160.21826171875 3159.30859375 3158.41943359375 3157.5068359375 3156.33056640625 3154.88061523438 3153.45141601562 3152.08569335938 3150.62744140625 3148.84912109375 3146.69482421875 3144.45263671875 3141.85961914062 3138.96362304688 3136.15942382812 3133.173828125 3129.36206054688 3125.17041015625 3121.47412109375 3117.72119140625 3113.41528320312 3109.88623046875 3107.92553710938 3106.45043945312 3104.90502929688 3103.47412109375 3102.09155273438 3100.32666015625 3098.0234375 3095.80932617188 3093.8779296875 3092.10083007812 3090.75903320312 3089.83227539062 3089.1337890625 3088.43481445312 3087.72827148438 3087.11547851562 3086.27954101562 3084.77392578125 3083.07641601562 3081.52514648438 3079.81323242188 3077.89965820312 3076.4326171875 3075.60205078125 3074.65625 3073.22045898438 3071.59448242188 3069.83666992188 3067.64575195312 3065.10913085938 3062.59594726562 3060.18041992188 3057.47900390625 3054.67041015625 3052.05395507812 3049.21069335938 3045.80029296875 3042.99072265625 3041.64111328125 3041.07104492188 3040.97290039062 3040.89770507812 3040.70849609375 3040.27319335938 3039.75610351562 3039.5400390625 3039.78686523438 3040.11083984375 3040.01293945312 3039.71850585938 3039.2265625 3038.12963867188 3036.65356445312 3035.33032226562 3034.02905273438 3032.51538085938 3030.775390625 3028.96948242188 3026.93432617188 3024.57275390625 3022.32885742188 3020.77978515625 3020.05224609375 3019.96875 3020.08154296875 3020.1875 3020.17431640625 3019.83862304688 3019.21215820312 3018.49340820312 3017.3427734375 3015.64501953125 3013.96655273438 3012.365234375 3010.56005859375 3008.65185546875 3006.83251953125 3004.94482421875 3002.72900390625 3000.408203125 2998.17309570312 2995.51806640625 2992.31689453125 2989.07983398438 2986.47607421875 2984.75805664062 2983.97192382812 2983.64770507812 2983.40087890625 2983.1650390625 2982.92016601562 2982.69482421875 2982.36254882812 2981.75415039062 2980.869140625 2979.78247070312 2978.42993164062 2976.91088867188 2975.52026367188 2974.35083007812 2973.0634765625 2971.48706054688 2969.77587890625 2968.03442382812 2966.34057617188 2965.37939453125 2965.29736328125 2965.54077148438 2965.9150390625 2966.28393554688 2966.61987304688 2966.974609375 2967.36352539062 2967.6943359375 2967.99609375 2968.23583984375 2968.32666015625 2968.33178710938 2968.3193359375 2968.31274414062 2968.48608398438 2968.970703125 2969.68310546875 2970.5068359375 2971.18774414062 2971.64794921875 2971.98706054688 2972.15405273438 2972.0791015625 2971.79321289062 2971.33837890625 2970.52587890625 2969.51391601562 2968.501953125 2967.3681640625 2965.97143554688 2964.41918945312 2962.97338867188 2961.27221679688 2959.38891601562 2957.49047851562 2955.7275390625 2953.6103515625 -3.4e+38 -3.4e+38 -3.4e+38 -3.4e+38 -3.4e+38 -3.4e+38 -3.4e+38 -3.4e+38 -3.4e+38 -3.4e+38 -3.4e+38 -3.4e+38 -3.4e+38 -3.4e+38 -3.4e+38 -3.4e+38 -3.4e+38 -3.4e+38 -3.4e+38 -3.4e+38 -3.4e+38 -3.4e+38
3203.30200195312 3200.4326171875 3197.69213867188 3194.42016601562 3190.62719726562 3187.39477539062 3185.04809570312 3183.05200195312 3181.44702148438 3180.37817382812 3179.5107421875 3178.60034179688 3177.7314453125 3177.06079101562 3176.4404296875 3175.78881835938 3175.14379882812 3174.59448242188 3174.00830078125 3173.34057617188 3172.68994140625 3172.0654296875 3171.37036132812 3170.6376953125 3169.92724609375 3169.24829101562 3168.52197265625 3167.77026367188 3167.11401367188 3166.50122070312 3165.80004882812 3165.11962890625 3164.50854492188 3163.85766601562 3163.08129882812 3162.2958984375 3161.46655273438 3160.35693359375 3159.01953125 3157.67529296875 3156.34594726562 3154.81958007812 3152.65600585938 3150.04125976562 3147.57177734375 3144.7744140625 3141.71899414062 3138.97412109375 3136.26147460938 3132.52490234375 3128.04907226562 3124.36791992188 3120.74853515625 3116.45751953125 3112.84545898438 3110.86059570312 3109.45849609375 3108.04370117188 3106.60205078125 3105.0849609375 3103.15942382812 3100.90209960938 3098.7041015625 3096.7705078125 3095.16162109375 3094.07641601562 3093.2705078125 3092.49462890625 3091.64379882812 3090.798828125 3090.00170898438 3089.03198242188 3087.52294921875 3085.81640625 3084.271484375 3082.70361328125 3081.13110351562 3079.87451171875 3078.91186523438 3077.89794921875 3076.66162109375 3075.35961914062 3073.9423828125 3071.81713867188 3069.07641601562 3066.5234375 3064.03100585938 3061.22802734375 3058.40747070312 3055.96533203125 3053.408203125 3050.39526367188 3047.69360351562 3046.02099609375 3045.35083007812 3045.26513671875 3045.24731445312 3045.20166015625 3045.09130859375 3044.95581054688 3044.9345703125 3045.07470703125 3045.16967773438 3044.9326171875 3044.46533203125 3043.83325195312 3042.74877929688 3041.31689453125 3039.97778320312 3038.61645507812 3037.11157226562 3035.53247070312 3033.94262695312 3032.17138671875 3030.01196289062 3027.8427734375 3026.48413085938 3025.94213867188 3025.689453125 3025.498046875 3025.30908203125 3025.1337890625 3024.77197265625 3024.06274414062 3023.21362304688 3022.0673828125 3020.50952148438 3018.80688476562 3017.080078125 3015.07446289062 3012.80639648438 3010.5126953125 3008.31665039062 3006.10180664062 3003.98022460938 3001.97680664062 2999.4345703125 2996.22485351562 2992.94287109375 2990.2099609375 2988.69750976562 2988.25610351562 2987.98095703125 2987.74658203125 2987.50073242188 2987.2421875 2987.02490234375 2986.78735351562 2986.33325195312 2985.33715820312 2984.0087890625 2982.52416992188 2980.79321289062 2979.16723632812 2977.78686523438 2976.26245117188 2974.49658203125 2972.79174804688 2971.24340820312 2969.77612304688 2968.82958984375 2968.56420898438 2968.69848632812 2969.068359375 2969.42358398438 2969.79809570312 2970.15258789062 2970.5224609375 2970.88330078125 2971.12963867188 2971.33837890625 2971.54858398438 2971.74389648438 2971.876953125 2972.05639648438 2972.38256835938 2972.92041015625 2973.71704101562 2974.54736328125 2975.02026367188 2975.29223632812 2975.490234375 2975.6162109375 2975.47998046875 2974.99829101562 2974.185546875 2973.21459960938 2972.08959960938 2970.89404296875 2969.49536132812 2967.84497070312 2966.11791992188 2964.47802734375 2962.50415039062 2960.40576171875 2958.3173828125 2956.39990234375 -3.4e+38 -3.4e+38 -3.4e+38 -3.4e+38 -3.4e+38 -3.4e+38 -3.4e+38 -3.4e+38 -3.4e+38 -3.4e+38 -3.4e+38 -3.4e+38 -3.4e+38 -3.4e+38 -3.4e+38 -3.4e+38 -3.4e+38 -3.4e+38 -3.4e+38 -3.4e+38 -3.4e+38 -3.4e+38 -3.4e+38
3205.876953125 3203.037109375 3200.41552734375 3197.48779296875 3194.18237304688 3191.07543945312 3188.44384765625 3186.12915039062 3184.50415039062 3183.486328125 3182.6044921875 3181.67919921875 3180.75708007812 3180.0107421875 3179.37036132812 3178.77563476562 3178.1884765625 3177.69384765625 3177.15551757812 3176.56298828125 3175.98071289062 3175.36743164062 3174.677734375 3173.94384765625 3173.255859375 3172.58618164062 3171.80615234375 3171.0068359375 3170.357421875 3169.80151367188 3169.14282226562 3168.50146484375 3167.92260742188 3167.30810546875 3166.6005859375 3165.8671875 3165.11450195312 3164.1474609375 3162.93212890625 3161.68383789062 3160.46875 3158.98388671875 3156.6298828125 3153.65942382812 3150.869140625 3147.63940429688 3144.29541015625 3141.49194335938 3138.75048828125 3135.0654296875 3130.72998046875 3127.13549804688 3123.65356445312 3119.82836914062 3116.57177734375 3114.45458984375 3112.79956054688 3111.333984375 3109.85107421875 3108.23120117188 3106.171875 3103.90478515625 3101.6826171875 3099.6318359375 3098.06420898438 3097.27319335938 3096.70190429688 3096.0244140625 3095.02661132812 3094.0107421875 3093.07080078125 3091.94750976562 3090.36547851562 3088.6669921875 3087.0888671875 3085.46411132812 3083.98779296875 3082.9521484375 3082.04418945312 3081.03173828125 3079.87768554688 3078.65478515625 3077.29321289062 3075.3349609375 3072.95678710938 3070.54614257812 3067.9931640625 3065.07055664062 3062.1982421875 3059.81396484375 3057.37670898438 3054.41430664062 3051.56372070312 3049.853515625 3049.40185546875 3049.44165039062 3049.47509765625 3049.54028320312 3049.61254882812 3049.69067382812 3049.775390625 3049.88549804688 3049.89794921875 3049.56298828125 3049.03125 3048.43920898438 3047.380859375 3045.9365234375 3044.62768554688 3043.27587890625 3041.72387695312 3040.14990234375 3038.681640625 3037.201171875 3035.48022460938 3033.7236328125 3032.55078125 3031.87231445312 3031.37451171875 3030.97924804688 3030.58740234375 3030.18872070312 3029.66333007812 3028.9052734375 3027.9912109375 3026.826171875 3025.33813476562 3023.69213867188 3021.96411132812 3019.7880859375 3017.07934570312 3014.25927734375 3011.6806640625 3009.27685546875 3007.1318359375 3005.20581054688 3002.927734375 3000.10131835938 2997.1591796875 2994.7958984375 2993.52221679688 2993.03637695312 2992.72509765625 2992.435546875 2992.14575195312 2991.85791015625 2991.603515625 2991.34643554688 2990.8671875 2989.81372070312 2988.41674804688 2986.9326171875 2985.2236328125 2983.46118164062 2981.69775390625 2979.7431640625 2977.70141601562 2975.88745117188 2974.37939453125 2973.02856445312 2972.08178710938 2971.77294921875 2971.84765625 2972.15502929688 2972.57666015625 2972.986328125 2973.32495117188 2973.65014648438 2973.98486328125 2974.24291992188 2974.49975585938 2974.79711914062 2975.10107421875 2975.34765625 2975.63452148438 2975.95678710938 2976.43408203125 2977.12963867188 2977.75415039062 2978.08422851562 2978.23828125 2978.29052734375 2978.28369140625 2978.01489257812 2977.47705078125 2976.73046875 2975.80908203125 2974.57202148438 2973.15698242188 2971.53833007812 2969.61596679688 2967.66528320312 2965.81713867188 2963.646484375 2961.37573242188 2959.05883789062 -3.4e+38 -3.4e+38 -3.4e+38 -3.4e+38 -3.4e+38 -3.4e+38 -3.4e+38 -3.4e+38 -3.4e+38 -3.4e+38 -3.4e+38 -3.4e+38 -3.4e+38 -3.4e+38 -3.4e+38 -3.4e+38 -3.4e+38 -3.4e+38 -3.4e+38 -3.4e+38 -3.4e+38 -3.4e+38 -3.4e+38 -3.4e+38
3208.49462890625 3205.57592773438 3202.970703125 3200.134765625 3197.12084960938 3194.30590820312 3191.80859375 3189.52563476562 3187.80322265625 3186.685546875 3185.78344726562 3184.8056640625 3183.8046875 3182.97705078125 3182.33520507812 3181.82348632812 3181.3173828125 3180.8896484375 3180.41235351562 3179.90234375 3179.36669921875 3178.82104492188 3178.21899414062 3177.53540039062 3176.87866210938 3176.22924804688 3175.43603515625 3174.64135742188 3173.97729492188 3173.40576171875 3172.74536132812 3172.07080078125 3171.484375 3170.86547851562 3170.162109375 3169.4638671875 3168.76513671875 3167.84057617188 3166.65454101562 3165.45141601562 3164.25024414062 3162.654296875 3160.203125 3157.19775390625 3154.16235351562 3150.54028320312 3146.8388671875 3143.83203125 3140.84790039062 3137.06103515625 3133.05029296875 3129.60546875 3126.22875976562 3122.72387695312 3119.90600585938 3117.9873046875 3116.2705078125 3114.68188476562 3113.064453125 3111.33911132812 3109.25268554688 3107.01293945312 3104.93798828125 3103.08740234375 3101.6337890625 3100.84301757812 3100.2353515625 3099.49633789062 3098.36401367188 3097.26196289062 3096.32446289062 3095.14965820312 3093.46069335938 3091.6806640625 3090.04077148438 3088.40698242188 3086.95581054688 3085.93530273438 3085.09204101562 3084.12915039062 3083.05053710938 3081.93359375 3080.56909179688 3078.67260742188 3076.5302734375 3074.404296875 3072.00219726562 3068.95434570312 3065.99047851562 3063.55126953125 3061.0712890625 3058.1953125 3055.62475585938 3053.99291992188 3053.20336914062 3053.10131835938 3053.19360351562 3053.294921875 3053.37817382812 3053.44995117188 3053.58276367188 3053.73510742188 3053.7509765625 3053.48413085938 3053.07934570312 3052.54150390625 3051.5625 3050.2734375 3049.09521484375 3047.83959960938 3046.27416992188 3044.5595703125 3042.91552734375 3041.41772460938 3040.0400390625 3038.84545898438 3038.04345703125 3037.3837890625 3036.78930664062 3036.28955078125 3035.77099609375 3035.1513671875 3034.49951171875 3033.68432617188 3032.64184570312 3031.36206054688 3029.81616210938 3028.21240234375 3026.56494140625 3024.53344726562 3021.77807617188 3018.5166015625 3015.34814453125 3012.4990234375 3010.09448242188 3008.01708984375 3005.828125 3003.45678710938 3001.24340820312 2999.759765625 2998.94555664062 2998.34814453125 2997.93969726562 2997.54052734375 2997.12719726562 2996.7060546875 2996.36401367188 2995.97778320312 2995.25268554688 2994.06884765625 2992.75927734375 2991.31640625 2989.66723632812 2987.82348632812 2985.75073242188 2983.47509765625 2981.19262695312 2979.1982421875 2977.44091796875 2975.75268554688 2974.64038085938 2974.49291992188 2974.75805664062 2975.15478515625 2975.65771484375 2976.10888671875 2976.52709960938 2976.88696289062 2977.19116210938 2977.49267578125 2977.8388671875 2978.13208007812 2978.3896484375 2978.67456054688 2978.95922851562 2979.22485351562 2979.6279296875 2980.1083984375 2980.48413085938 2980.6787109375 2980.73120117188 2980.70629882812 2980.4970703125 2980.12524414062 2979.64819335938 2978.931640625 2977.92358398438 2976.69165039062 2975.28198242188 2973.39990234375 2971.28564453125 2969.10278320312 2967.05224609375 2964.72436523438 2962.19848632812 -3.4e+38 -3.4e+38 -3.4e+38 -3.4e+38 -3.4e+38 -3.4e+38 -3.4e+38 -3.4e+38 -3.4e+38 -3.4e+38 -3.4e+38 -3.4e+38 -3.4e+38 -3.4e+38 -3.4e+38 -3.4e+38 -3.4e+38 -3.4e+38 -3.4e+38 -3.4e+38 -3.4e+38 -3.4e+38 -3.4e+38 -3.4e+38 -3.4e+38
3211.154296875 3208.14111328125 3205.49658203125 3202.62231445312 3199.61938476562 3196.99096679688 3194.79760742188 3192.80297851562 3191.16796875 3190.03881835938 3189.11352539062 3188.07666015625 3187.04565429688 3186.2119140625 3185.556640625 3185.07104492188 3184.64233398438 3184.23461914062 3183.78857421875 3183.3359375 3182.82299804688 3182.33520507812 3181.84252929688 3181.2705078125 3180.69287109375 3180.13842773438 3179.45043945312 3178.75952148438 3178.12451171875 3177.51098632812 3176.82373046875 3176.13623046875 3175.52124023438 3174.86791992188 3174.11499023438 3173.37255859375 3172.63159179688 3171.6298828125 3170.38110351562 3169.14672851562 3167.89794921875 3165.98999023438 3163.32055664062 3160.52807617188 3157.552734375 3153.8125 3149.7158203125 3146.31030273438 3143.134765625 3139.19384765625 3135.1005859375 3131.75439453125 3128.59106445312 3125.3876953125 3122.97607421875 3121.33325195312 3119.6953125 3117.94946289062 3116.21459960938 3114.46630859375 3112.35961914062 3110.08862304688 3108.158203125 3106.68139648438 3105.5439453125 3104.70434570312 3104.01098632812 3103.19750976562 3102.05639648438 3100.85913085938 3099.76733398438 3098.37719726562 3096.56176757812 3094.80810546875 3093.20385742188 3091.56884765625 3090.12670898438 3089.06909179688 3088.18872070312 3087.25537109375 3086.31616210938 3085.31127929688 3083.89404296875 3081.9814453125 3079.87768554688 3077.83642578125 3075.57250976562 3072.69799804688 3069.759765625 3067.15307617188 3064.50903320312 3061.62622070312 3059.20043945312 3057.6328125 3056.6962890625 3056.44775390625 3056.57104492188 3056.70483398438 3056.69555664062 3056.7353515625 3056.875 3057.09130859375 3057.27221679688 3057.17651367188 3056.83276367188 3056.29125976562 3055.36767578125 3054.21606445312 3053.1064453125 3051.91723632812 3050.38134765625 3048.4765625 3046.52978515625 3044.82348632812 3043.56884765625 3042.76904296875 3042.27294921875 3041.802734375 3041.29125976562 3040.80834960938 3040.28686523438 3039.63427734375 3038.95336914062 3038.09838867188 3037.00439453125 3035.67578125 3034.02270507812 3032.31225585938 3030.60717773438 3028.67431640625 3026.13232421875 3022.935546875 3019.45166015625 3016.02465820312 3013.0712890625 3010.71118164062 3008.54931640625 3006.544921875 3004.94262695312 3003.97802734375 3003.46459960938 3003.02661132812 3002.61499023438 3002.23266601562 3001.775390625 3001.31127929688 3000.9267578125 3000.50244140625 2999.68383789062 2998.39770507812 2997.06665039062 2995.60888671875 2993.91918945312 2991.94653320312 2989.748046875 2987.25952148438 2984.83837890625 2982.72338867188 2980.76440429688 2978.734375 2977.45727539062 2977.38720703125 2977.78466796875 2978.35375976562 2978.9501953125 2979.4150390625 2979.8623046875 2980.27075195312 2980.6123046875 2980.92504882812 2981.27099609375 2981.54370117188 2981.80981445312 2982.029296875 2982.2607421875 2982.51977539062 2982.81787109375 2983.08203125 2983.28295898438 2983.29370117188 2983.1748046875 2983.01928710938 2982.67578125 2982.13061523438 2981.51513671875 2980.71850585938 2979.6337890625 2978.36303710938 2976.98046875 2975.07958984375 2972.806640625 2970.4208984375 2968.04614257812 2965.3935546875 -3.4e+38 -3.4e+38 -3.4e+38 -3.4e+38 -3.4e+38 -3.4e+38 -3.4e+38 -3.4e+38 -3.4e+38 -3.4e+38 -3.4e+38 -3.4e+38 -3.4e+38 -3.4e+38 -3.4e+38 -3.4e+38 -3.4e+38 -3.4e+38 -3.4e+38 -3.4e+38 -3.4e+38 -3.4e+38 -3.4e+38 -3.4e+38 -3.4e+38 -3.4e+38
3213.7041015625 3210.64794921875 3207.96508789062 3205.09155273438 3202.06958007812 3199.51416015625 3197.46435546875 3195.72192382812 3194.3876953125 3193.41088867188 3192.49780273438 3191.44775390625 3190.4619140625 3189.71118164062 3189.08569335938 3188.59204101562 3188.1884765625 3187.80639648438 3187.38720703125 3186.947265625 3186.48657226562 3186.04296875 3185.58862304688 3185.08813476562 3184.6044921875 3184.13647460938 3183.55395507812 3182.95288085938 3182.39453125 3181.83447265625 3181.19653320312 3180.55541992188 3179.94287109375 3179.32421875 3178.55883789062 3177.685546875 3176.8125 3175.64038085938 3174.23852539062 3172.8955078125 3171.57275390625 3169.45556640625 3166.552734375 3163.75390625 3160.97314453125 3157.33911132812 3152.99291992188 3149.23071289062 3145.73291015625 3141.5888671875 3137.1865234375 3133.7626953125 3131.009765625 3128.35327148438 3126.20239257812 3124.59155273438 3122.9765625 3121.24731445312 3119.55200195312 3117.79638671875 3115.65942382812 3113.29516601562 3111.24609375 3109.96215820312 3109.31420898438 3108.69262695312 3108.08935546875 3107.40771484375 3106.21533203125 3104.7109375 3103.32861328125 3101.68432617188 3099.72436523438 3097.87573242188 3096.25244140625 3094.6572265625 3093.2490234375 3092.13720703125 3091.22045898438 3090.32250976562 3089.41357421875 3088.373046875 3087.068359375 3085.31909179688 3083.29150390625 3081.2802734375 3079.02905273438 3076.25805664062 3073.4150390625 3070.81323242188 3068.013671875 3064.943359375 3062.23754882812 3060.4384765625 3059.49975585938 3059.42944335938 3059.89624023438 3060.10131835938 3059.86254882812 3059.76391601562 3059.97290039062 3060.38305664062 3060.85327148438 3060.9287109375 3060.57299804688 3060.08618164062 3059.140625 3057.90380859375 3056.76538085938 3055.50903320312 3053.89819335938 3051.86401367188 3049.69604492188 3047.734375 3046.53759765625 3046.11499023438 3045.8916015625 3045.59619140625 3045.10595703125 3044.6220703125 3044.11987304688 3043.50219726562 3042.77856445312 3041.9130859375 3040.8818359375 3039.54150390625 3037.8681640625 3036.09375 3034.23754882812 3032.03930664062 3029.54931640625 3026.8505859375 3023.53930664062 3019.86108398438 3016.41943359375 3013.53344726562 3011.11254882812 3009.55444335938 3008.64184570312 3007.94750976562 3007.3115234375 3006.82934570312 3006.50317382812 3006.15551757812 3005.72924804688 3005.28637695312 3004.85571289062 3004.3427734375 3003.47485351562 3002.31323242188 3001.15869140625 2999.888671875 2998.35693359375 2996.39184570312 2993.998046875 2991.197265625 2988.51782226562 2986.29052734375 2984.375 2982.63671875 2981.59008789062 2981.29370117188 2981.498046875 2981.92236328125 2982.33081054688 2982.79663085938 2983.27416992188 2983.7607421875 2984.2255859375 2984.57373046875 2984.79931640625 2984.98559570312 2985.1845703125 2985.31372070312 2985.45434570312 2985.642578125 2985.84252929688 2985.99072265625 2986.01831054688 2985.77221679688 2985.4697265625 2985.1220703125 2984.67919921875 2984.13647460938 2983.44116210938 2982.51489257812 2981.26489257812 2979.82690429688 2978.38745117188 2976.63305664062 2974.34887695312 2971.6064453125 2968.83837890625 -3.4e+38 -3.4e+38 -3.4e+38 -3.4e+38 -3.4e+38 -3.4e+38 -3.4e+38 -3.4e+38 -3.4e+38 -3.4e+38 -3.4e+38 -3.4e+38 -3.4e+38 -3.4e+38 -3.4e+38 -3.4e+38 -3.4e+38 -3.4e+38 -3.4e+38 -3.4e+38 -3.4e+38 -3.4e+38 -3.4e+38 -3.4e+38 -3.4e+38 -3.4e+38 -3.4e+38
3216.0126953125 3212.8642578125 3210.13159179688 3207.275390625 3204.41479492188 3201.93481445312 3199.84521484375 3198.23413085938 3197.12622070312 3196.32885742188 3195.58618164062 3194.72290039062 3193.80395507812 3193.14184570312 3192.67138671875 3192.24536132812 3191.873046875 3191.5576171875 3191.19995117188 3190.79663085938 3190.38818359375 3189.9912109375 3189.56372070312 3189.09619140625 3188.67529296875 3188.240234375 3187.7275390625 3187.18188476562 3186.6611328125 3186.1298828125 3185.53247070312 3184.93823242188 3184.35375976562 3183.7646484375 3183.04418945312 3182.10302734375 3181.14086914062 3179.86083984375 3178.2841796875 3176.74243164062 3175.1083984375 3172.72534179688 3169.74877929688 3166.96484375 3164.1923828125 3160.62280273438 3156.41479492188 3152.52197265625 3148.73193359375 3144.4169921875 3139.96166992188 3136.29150390625 3133.3740234375 3131.10668945312 3129.32104492188 3127.7568359375 3126.12426757812 3124.47924804688 3122.87841796875 3121.3125 3119.2734375 3116.88403320312 3114.90014648438 3113.5302734375 3112.71752929688 3112.095703125 3111.64477539062 3111.03149414062 3110.04907226562 3108.68823242188 3107.14013671875 3105.35668945312 3103.21997070312 3101.14111328125 3099.3310546875 3097.54028320312 3096.00805664062 3094.92504882812 3094.20043945312 3093.38696289062 3092.39990234375 3091.30029296875 3090.05615234375 3088.46826171875 3086.64111328125 3084.74829101562 3082.51831054688 3079.771484375 3076.9677734375 3074.44165039062 3071.6923828125 3068.60791015625 3065.70922851562 3063.60327148438 3062.46899414062 3062.45336914062 3063.1259765625 3063.39990234375 3063.1787109375 3063.0439453125 3063.32568359375 3063.84008789062 3064.40209960938 3064.56982421875 3064.31567382812 3063.83959960938 3062.85009765625 3061.55224609375 3060.36279296875 3059.05297851562 3057.41040039062 3055.36669921875 3053.09887695312 3050.82666015625 3049.55444335938 3049.45874023438 3049.50146484375 3049.34497070312 3048.8681640625 3048.38037109375 3047.8662109375 3047.23706054688 3046.443359375 3045.48559570312 3044.36889648438 3042.85180664062 3041.15258789062 3039.46948242188 3037.62353515625 3035.42651367188 3032.85815429688 3030.23779296875 3027.24072265625 3023.82153320312 3020.36645507812 3017.07104492188 3014.14575195312 3012.66967773438 3012.107421875 3011.62963867188 3011.09765625 3010.59033203125 3010.19409179688 3009.79956054688 3009.36279296875 3008.9033203125 3008.39086914062 3007.6923828125 3006.7265625 3005.70434570312 3004.724609375 3003.6220703125 3002.37182617188 3000.78930664062 2998.53198242188 2995.50756835938 2992.49731445312 2989.98461914062 2987.82153320312 2986.06225585938 2985.220703125 2985.06640625 2985.16821289062 2985.435546875 2985.77197265625 2986.17700195312 2986.67919921875 2987.30346679688 2987.951171875 2988.34448242188 2988.46142578125 2988.552734375 2988.6640625 2988.70361328125 2988.75366210938 2988.82104492188 2988.88598632812 2988.92724609375 2988.76049804688 2988.24584960938 2987.73706054688 2987.25708007812 2986.7109375 2986.17163085938 2985.49145507812 2984.43041992188 2982.97290039062 2981.36474609375 2979.80639648438 2977.98803710938 2975.6416015625 2972.69091796875 -3.4e+38 -3.4e+38 -3.4e+38 -3.4e+38 -3.4e+38 -3.4e+38 -3.4e+38 -3.4e+38 -3.4e+38 -3.4e+38 -3.4e+38 -3.4e+38 -3.4e+38 -3.4e+38 -3.4e+38 -3.4e+38 -3.4e+38 -3.4e+38 -3.4e+38 -3.4e+38 -3.4e+38 -3.4e+38 -3.4e+38 -3.4e+38 -3.4e+38 -3.4e+38 -3.4e+38 -3.4e+38
3217.99365234375 3214.54931640625 3211.66015625 3208.85986328125 3206.23999023438 3204.05786132812 3202.21728515625 3200.55786132812 3199.40478515625 3198.60302734375 3197.962890625 3197.35522460938 3196.68310546875 3196.2197265625 3195.98608398438 3195.74536132812 3195.48901367188 3195.27026367188 3194.99658203125 3194.67700195312 3194.32446289062 3193.978515625 3193.607421875 3193.21655273438 3192.85229492188 3192.45556640625 3192.0234375 3191.49926757812 3190.95043945312 3190.37573242188 3189.71240234375 3189.1025390625 3188.525390625 3187.9521484375 3187.23217773438 3186.30346679688 3185.3251953125 3183.9697265625 3182.28759765625 3180.57958984375 3178.60986328125 3175.91186523438 3172.94189453125 3170.2060546875 3167.2880859375 3163.578125 3159.6279296875 3155.89916992188 3151.96264648438 3147.61083984375 3143.3564453125 3139.51928710938 3136.10229492188 3133.80004882812 3132.28100585938 3130.81762695312 3129.21215820312 3127.59985351562 3126.01684570312 3124.46850585938 3122.59326171875 3120.40356445312 3118.53540039062 3117.1591796875 3115.9638671875 3114.99829101562 3114.41162109375 3113.69018554688 3112.70678710938 3111.61352539062 3110.55249023438 3109.11767578125 3106.89135742188 3104.56176757812 3102.57934570312 3100.53369140625 3098.78588867188 3097.80590820312 3097.2373046875 3096.501953125 3095.45166015625 3094.29125976562 3093.08081054688 3091.57543945312 3089.81591796875 3088.04565429688 3085.98950195312 3083.38500976562 3080.615234375 3078.044921875 3075.29833984375 3072.32739257812 3069.64672851562 3067.65185546875 3066.29736328125 3065.96020507812 3066.40283203125 3066.68920898438 3066.74438476562 3066.78466796875 3067.09301757812 3067.62133789062 3068.134765625 3068.32983398438 3068.20581054688 3067.6376953125 3066.55078125 3065.26391601562 3064.01586914062 3062.68408203125 3061.11352539062 3059.19165039062 3057.11596679688 3054.97583007812 3053.63989257812 3053.4228515625 3053.44116210938 3053.27587890625 3052.81079101562 3052.26806640625 3051.68823242188 3050.99072265625 3050.08276367188 3049.05590820312 3047.80786132812 3046.04467773438 3044.22045898438 3042.5810546875 3040.77587890625 3038.63134765625 3036.10180664062 3033.4619140625 3030.55786132812 3027.48461914062 3024.40600585938 3021.29077148438 3018.44604492188 3016.92407226562 3016.23168945312 3015.7431640625 3015.22216796875 3014.6865234375 3014.17700195312 3013.69702148438 3013.1328125 3012.60278320312 3011.97485351562 3011.01196289062 3009.90478515625 3008.85815429688 3007.92333984375 3006.8310546875 3005.57080078125 3004.162109375 3002.36206054688 2999.88427734375 2996.99267578125 2994.26220703125 2991.66015625 2989.38696289062 2988.64770507812 2988.873046875 2989.11083984375 2989.39379882812 2989.7939453125 2990.33862304688 2991.00073242188 2991.74072265625 2992.38110351562 2992.7041015625 2992.75512695312 2992.6474609375 2992.572265625 2992.50244140625 2992.34643554688 2992.17749023438 2992.04833984375 2991.86254882812 2991.43334960938 2990.74755859375 2990.12768554688 2989.53271484375 2988.92919921875 2988.29272460938 2987.48754882812 2986.265625 2984.642578125 2982.85229492188 2981.1279296875 2979.07641601562 2976.59033203125 -3.4e+38 -3.4e+38 -3.4e+38 -3.4e+38 -3.4e+38 -3.4e+38 -3.4e+38 -3.4e+38 -3.4e+38 -3.4e+38 -3.4e+38 -3.4e+38 -3.4e+38 -3.4e+38 -3.4e+38 -3.4e+38 -3.4e+38 -3.4e+38 -3.4e+38 -3.4e+38 -3.4e+38 -3.4e+38 -3.4e+38 -3.4e+38 -3.4e+38 -3.4e+38 -3.4e+38 -3.4e+38 -3.4e+38
3219.015625 3215.57861328125 3212.50610351562 3209.623046875 3207.16162109375 3205.43310546875 3204.10302734375 3202.63427734375 3201.36987304688 3200.4736328125 3199.76025390625 3199.29321289062 3198.9990234375 3198.82348632812 3198.82739257812 3198.84594726562 3198.79467773438 3198.73852539062 3198.591796875 3198.37939453125 3198.10620117188 3197.82153320312 3197.52294921875 3197.18359375 3196.880859375 3196.5361328125 3196.13647460938 3195.69213867188 3195.16333007812 3194.5615234375 3193.86596679688 3193.1845703125 3192.5654296875 3191.9365234375 3191.21118164062 3190.30981445312 3189.24096679688 3187.75170898438 3186.02270507812 3184.27978515625 3182.142578125 3179.22265625 3176.1669921875 3173.3623046875 3170.24389648438 3166.3720703125 3162.54223632812 3159.06518554688 3155.2001953125 3150.79663085938 3146.66455078125 3143.07763671875 3139.68481445312 3137.07641601562 3135.38671875 3133.94458007812 3132.37231445312 3130.62573242188 3128.87817382812 3127.22900390625 3125.33325195312 3123.31494140625 3121.5771484375 3120.06103515625 3118.70751953125 3117.62158203125 3116.6376953125 3115.63671875 3114.73608398438 3113.61962890625 3112.61938476562 3111.52319335938 3109.92016601562 3107.95703125 3105.91528320312 3103.74365234375 3101.91821289062 3100.8603515625 3100.0732421875 3099.33178710938 3098.3251953125 3097.26733398438 3096.10498046875 3094.66943359375 3093.0400390625 3091.3427734375 3089.38671875 3087.01513671875 3084.43090820312 3081.81982421875 3078.91455078125 3075.87377929688 3073.26220703125 3071.32983398438 3069.95483398438 3069.4677734375 3069.7490234375 3070.19165039062 3070.38256835938 3070.43823242188 3070.8359375 3071.51684570312 3072.0205078125 3072.22119140625 3072.173828125 3071.55493164062 3070.36572265625 3069.060546875 3067.72778320312 3066.25048828125 3064.63916015625 3062.900390625 3061.20190429688 3059.4677734375 3058.22412109375 3057.78515625 3057.68383789062 3057.52587890625 3057.07836914062 3056.396484375 3055.68627929688 3054.80883789062 3053.70092773438 3052.54321289062 3051.10693359375 3049.17163085938 3047.24169921875 3045.53930664062 3043.61401367188 3041.41088867188 3039.04736328125 3036.5556640625 3033.69360351562 3030.66479492188 3027.86352539062 3025.2109375 3023.02709960938 3021.92529296875 3021.24731445312 3020.69555664062 3020.08862304688 3019.509765625 3018.95288085938 3018.36083984375 3017.62231445312 3016.8154296875 3015.88842773438 3014.67529296875 3013.28930664062 3012.01318359375 3010.94213867188 3009.84130859375 3008.62744140625 3007.287109375 3005.67138671875 3003.56420898438 3001.10913085938 2998.6689453125 2996.28955078125 2994.46875 2993.82739257812 2993.93627929688 2994.33178710938 2994.7724609375 2995.27807617188 2995.82568359375 2996.44750976562 2997.0625 2997.63891601562 2997.8828125 2997.63208007812 2997.23022460938 2996.91088867188 2996.64819335938 2996.31323242188 2995.857421875 2995.3662109375 2994.77221679688 2994.05908203125 2993.27709960938 2992.52978515625 2991.8056640625 2991.0205078125 2990.15649414062 2989.22387695312 2987.8583984375 2986.06079101562 2984.16333007812 2982.2041015625 2979.85595703125 -3.4e+38 -3.4e+38 -3.4e+38 -3.4e+38 -3.4e+38 -3.4e+38 -3.4e+38 -3.4e+38 -3.4e+38 -3.4e+38 -3.4e+38 -3.4e+38 -3.4e+38 -3.4e+38 -3.4e+38 -3.4e+38 -3.4e+38 -3.4e+38 -3.4e+38 -3.4e+38 -3.4e+38 -3.4e+38 -3.4e+38 -3.4e+38 -3.4e+38 -3.4e+38 -3.4e+38 -3.4e+38 -3.4e+38 -3.4e+38
3219.31884765625 3215.96533203125 3212.791015625 3209.84204101562 3207.52270507812 3206.18701171875 3205.18017578125 3203.99194335938 3202.78491210938 3201.94873046875 3201.26489257812 3200.96166992188 3201.1044921875 3201.2060546875 3201.38037109375 3201.71337890625 3201.9716796875 3202.11352539062 3202.09912109375 3201.9267578125 3201.7158203125 3201.484375 3201.22338867188 3200.93872070312 3200.63549804688 3200.29858398438 3199.89111328125 3199.44262695312 3198.96557617188 3198.390625 3197.73583984375 3197.072265625 3196.46118164062 3195.82739257812 3195.1640625 3194.3115234375 3193.16870117188 3191.54760742188 3189.5146484375 3187.51416015625 3185.29174804688 3182.40747070312 3179.25952148438 3176.23706054688 3172.86108398438 3168.92553710938 3165.20166015625 3161.95092773438 3158.32836914062 3153.92553710938 3149.72192382812 3146.33325195312 3143.18310546875 3140.419921875 3138.3603515625 3136.90258789062 3135.36865234375 3133.44848632812 3131.5048828125 3129.74829101562 3127.77612304688 3125.7744140625 3124.05737304688 3122.4345703125 3120.88940429688 3119.64086914062 3118.58374023438 3117.49609375 3116.134765625 3114.73754882812 3113.8486328125 3112.92016601562 3111.81591796875 3110.64477539062 3109.05981445312 3107.0126953125 3105.20654296875 3103.79296875 3102.59326171875 3101.74462890625 3100.87915039062 3099.99365234375 3099.0146484375 3097.77807617188 3096.3984375 3094.82983398438 3092.87622070312 3090.4990234375 3088.02490234375 3085.47534179688 3082.53271484375 3079.39526367188 3076.59814453125 3074.39331054688 3072.970703125 3072.64526367188 3072.9833984375 3073.603515625 3073.80859375 3073.73071289062 3074.07421875 3074.75903320312 3075.2421875 3075.39526367188 3075.34594726562 3074.84521484375 3073.86865234375 3072.71606445312 3071.34838867188 3069.68725585938 3067.95068359375 3066.31665039062 3064.80737304688 3063.24194335938 3062.21948242188 3061.95190429688 3061.8583984375 3061.76904296875 3061.28662109375 3060.50219726562 3059.68627929688 3058.64184570312 3057.36450195312 3055.97265625 3054.33081054688 3052.3271484375 3050.27392578125 3048.4560546875 3046.41088867188 3044.01928710938 3041.6669921875 3039.38500976562 3036.64794921875 3033.61987304688 3030.9814453125 3028.689453125 3027.06909179688 3026.40307617188 3025.95385742188 3025.53491210938 3025.01538085938 3024.498046875 3024.05493164062 3023.61791992188 3022.7998046875 3021.47265625 3020.21337890625 3018.83203125 3017.31127929688 3015.8349609375 3014.52734375 3013.18774414062 3011.84033203125 3010.57495117188 3009.14990234375 3007.21606445312 3004.95385742188 3002.73974609375 3000.67626953125 2999.40380859375 2999.21875 2999.52807617188 2999.92163085938 3000.30029296875 3000.65209960938 3000.93701171875 3001.29736328125 3001.6455078125 3001.884765625 3001.93139648438 3001.6083984375 3001.17846679688 3000.79956054688 3000.45043945312 3000.06201171875 2999.423828125 2998.50756835938 2997.59716796875 2996.72290039062 2995.84838867188 2994.97436523438 2994.01708984375 2992.92407226562 2991.77880859375 2990.61889648438 2989.23364257812 2987.3994140625 2985.20141601562 2982.93872070312 -3.4e+38 -3.4e+38 -3.4e+38 -3.4e+38 -3.4e+38 -3.4e+38 -3.4e+38 -3.4e+38 -3.4e+38 -3.4e+38 -3.4e+38 -3.4e+38 -3.4e+38 -3.4e+38 -3.4e+38 -3.4e+38 -3.4e+38 -3.4e+38 -3.4e+38 -3.4e+38 -3.4e+38 -3.4e+38 -3.4e+38 -3.4e+38 -3.4e+38 -3.4e+38 -3.4e+38 -3.4e+38 -3.4e+38 -3.4e+38 -3.4e+38
3218.90844726562 3215.58569335938 3212.47705078125 3209.64868164062 3207.5888671875 3206.5556640625 3205.65991210938 3204.55859375 3203.5107421875 3202.90771484375 3202.48779296875 3202.45239257812 3202.99389648438 3203.47778320312 3203.81787109375 3204.4833984375 3205.13403320312 3205.46850585938 3205.59252929688 3205.4658203125 3205.27490234375 3205.07543945312 3204.81884765625 3204.56201171875 3204.27563476562 3203.89331054688 3203.408203125 3202.8701171875 3202.37255859375 3201.8134765625 3201.19995117188 3200.62060546875 3200.06005859375 3199.43359375 3198.71850585938 3197.87670898438 3196.79125976562 3195.05444335938 3192.69848632812 3190.46826171875 3188.18139648438 3185.4345703125 3182.310546875 3178.9609375 3175.32080078125 3171.33349609375 3167.6572265625 3164.47045898438 3161.00390625 3156.890625 3152.69091796875 3149.11889648438 3145.86987304688 3143.18383789062 3141.06201171875 3139.404296875 3137.72143554688 3135.83715820312 3134.0595703125 3132.27270507812 3130.21166992188 3127.99243164062 3126.13940429688 3124.56689453125 3122.89770507812 3121.32739257812 3120.04077148438 3118.67163085938 3117.00659179688 3115.58959960938 3114.5703125 3113.86889648438 3113.17065429688 3112.21606445312 3111.17944335938 3109.58129882812 3107.68334960938 3106.17797851562 3104.98657226562 3104.03198242188 3103.19775390625 3102.431640625 3101.6396484375 3100.64428710938 3099.50805664062 3098.24829101562 3096.42456054688 3093.90551757812 3091.30419921875 3088.78784179688 3085.99243164062 3082.9794921875 3080.17626953125 3077.87158203125 3076.29296875 3075.83056640625 3076.0146484375 3076.474609375 3076.68603515625 3076.65576171875 3076.83935546875 3077.24169921875 3077.61645507812 3077.7509765625 3077.65478515625 3077.29858398438 3076.63647460938 3075.70751953125 3074.48706054688 3072.8740234375 3071.10986328125 3069.51293945312 3068.08569335938 3066.75903320312 3065.97387695312 3065.74780273438 3065.61791992188 3065.44580078125 3064.98095703125 3064.24365234375 3063.42041015625 3062.37719726562 3061.00732421875 3059.390625 3057.59716796875 3055.57568359375 3053.48608398438 3051.5068359375 3049.19018554688 3046.55151367188 3044.15869140625 3041.89453125 3039.17138671875 3036.1962890625 3033.859375 3032.24365234375 3031.12255859375 3030.44750976562 3030.0341796875 3029.68188476562 3029.244140625 3028.77734375 3028.32592773438 3027.82104492188 3026.9755859375 3025.75512695312 3024.63134765625 3023.34301757812 3021.79565429688 3020.2685546875 3018.84448242188 3017.27856445312 3015.69946289062 3014.26049804688 3012.689453125 3010.76489257812 3008.72119140625 3007.0029296875 3005.50561523438 3004.4453125 3004.21484375 3004.40478515625 3004.59936523438 3004.79541015625 3004.94775390625 3005.03198242188 3005.06469726562 3005.09765625 3005.18359375 3005.03002929688 3004.609375 3004.166015625 3003.69262695312 3003.22973632812 3002.70654296875 3001.91015625 3001.01904296875 3000.2255859375 2999.31811523438 2998.27368164062 2997.20849609375 2995.9619140625 2994.49194335938 2993.04052734375 2991.73193359375 2990.2490234375 2988.3798828125 2986.025390625 -3.4e+38 -3.4e+38 -3.4e+38 -3.4e+38 -3.4e+38 -3.4e+38 -3.4e+38 -3.4e+38 -3.4e+38 -3.4e+38 -3.4e+38 -3.4e+38 -3.4e+38 -3.4e+38 -3.4e+38 -3.4e+38 -3.4e+38 -3.4e+38 -3.4e+38 -3.4e+38 -3.4e+38 -3.4e+38 -3.4e+38 -3.4e+38 -3.4e+38 -3.4e+38 -3.4e+38 -3.4e+38 -3.4e+38 -3.4e+38 -3.4e+38 -3.4e+38
3217.28979492188 3214.15869140625 3211.28125 3208.67895507812 3207.05151367188 3206.267578125 3205.36962890625 3204.3642578125 3203.60229492188 3203.359375 3203.40185546875 3203.75805664062 3204.48315429688 3205.2978515625 3205.93017578125 3206.798828125 3207.72436523438 3208.3173828125 3208.63012695312 3208.61669921875 3208.49340820312 3208.36547851562 3208.17602539062 3207.95971679688 3207.74438476562 3207.33569335938 3206.79443359375 3206.2314453125 3205.67919921875 3205.13720703125 3204.56201171875 3203.982421875 3203.42114257812 3202.77221679688 3201.96264648438 3200.99194335938 3199.7744140625 3197.912109375 3195.5517578125 3193.32470703125 3191.0009765625 3188.13720703125 3184.9072265625 3181.48950195312 3177.70434570312 3173.65014648438 3169.95361328125 3166.74291992188 3163.32421875 3159.4384765625 3155.51611328125 3151.873046875 3148.32861328125 3145.44653320312 3143.32250976562 3141.544921875 3139.70971679688 3137.84350585938 3136.23266601562 3134.66186523438 3132.59619140625 3130.05444335938 3127.80151367188 3125.87133789062 3124.03149414062 3122.28881835938 3120.853515625 3119.30395507812 3117.45068359375 3115.974609375 3115.10229492188 3114.59301757812 3113.88110351562 3113.0234375 3112.12817382812 3110.818359375 3109.1328125 3107.7958984375 3106.798828125 3106.041015625 3105.66625976562 3105.14038085938 3104.49096679688 3103.52856445312 3102.41088867188 3101.28002929688 3099.60034179688 3097.2197265625 3094.53564453125 3091.95971679688 3089.18579101562 3086.34838867188 3083.7861328125 3081.67529296875 3080.08349609375 3079.2392578125 3079.0107421875 3079.06958007812 3079.20361328125 3079.28002929688 3079.38549804688 3079.55737304688 3079.78833007812 3079.93188476562 3079.88916015625 3079.62280273438 3079.00366210938 3078.11206054688 3077.07568359375 3075.703125 3074.06909179688 3072.53540039062 3071.18188476562 3070.09033203125 3069.56396484375 3069.34155273438 3069.13647460938 3068.779296875 3068.24536132812 3067.59375 3066.81396484375 3065.73608398438 3064.31201171875 3062.71948242188 3060.9306640625 3058.92138671875 3056.81860351562 3054.65356445312 3052.00659179688 3049.13403320312 3046.6376953125 3044.27368164062 3041.45190429688 3038.42724609375 3036.2890625 3035.34033203125 3034.77661132812 3034.26489257812 3033.8310546875 3033.42431640625 3033.03784179688 3032.59204101562 3032.0283203125 3031.24560546875 3030.30541992188 3029.29174804688 3028.3046875 3027.14990234375 3025.87329101562 3024.66674804688 3023.48193359375 3021.96240234375 3020.16259765625 3018.35864257812 3016.5361328125 3014.5126953125 3012.44897460938 3010.94140625 3010.03759765625 3009.5380859375 3009.24047851562 3009.12841796875 3009.07299804688 3008.97509765625 3008.8056640625 3008.6064453125 3008.42749023438 3008.2099609375 3008.0068359375 3007.671875 3007.18188476562 3006.6611328125 3006.09228515625 3005.46606445312 3004.52392578125 3003.47045898438 3002.82202148438 3002.20092773438 3001.3544921875 3000.2822265625 2998.99487304688 2997.45849609375 2995.7060546875 2993.97094726562 2992.44409179688 2990.75854492188 2988.80810546875 -3.4e+38 -3.4e+38 -3.4e+38 -3.4e+38 -3.4e+38 -3.4e+38 -3.4e+38 -3.4e+38 -3.4e+38 -3.4e+38 -3.4e+38 -3.4e+38 -3.4e+38 -3.4e+38 -3.4e+38 -3.4e+38 -3.4e+38 -3.4e+38 -3.4e+38 -3.4e+38 -3.4e+38 -3.4e+38 -3.4e+38 -3.4e+38 -3.4e+38 -3.4e+38 -3.4e+38 -3.4e+38 -3.4e+38 -3.4e+38 -3.4e+38 -3.4e+38 -3.4e+38
-3.4e+38 -3.4e+38 -3.4e+38 -3.4e+38 -3.4e+38 -3.4e+38 -3.4e+38 -3.4e+38 3203.15576171875 3203.31567382812 3203.814453125 3204.63256835938 3205.6103515625 3206.57202148438 3207.53637695312 3208.58471679688 3209.57202148438 3210.32470703125 3210.81811523438 3211.08422851562 3211.1630859375 3211.14916992188 3211.05859375 3210.89868164062 3210.71850585938 3210.34008789062 3209.80737304688 3209.27026367188 3208.75854492188 3208.25659179688 3207.75317382812 3207.2353515625 3206.75390625 3206.09936523438 3205.16845703125 3204.02294921875 3202.65771484375 3200.64721679688 3198.283203125 3196.20947265625 3193.84619140625 3190.49243164062 3186.92895507812 3183.5390625 3179.8974609375 3175.95166015625 3172.27270507812 3169.02197265625 3165.54858398438 3161.77514648438 3158.09008789062 3154.50317382812 3150.7568359375 3147.51831054688 3145.18505859375 3143.36547851562 3141.43237304688 3139.46166992188 3137.91796875 3136.42919921875 3134.39135742188 3131.5576171875 3128.55126953125 3125.91259765625 3123.9140625 3122.24536132812 3120.82397460938 3119.40112304688 3117.67358398438 3116.314453125 3115.47534179688 3114.68530273438 3113.84497070312 3113.095703125 3112.29077148438 3111.17456054688 3109.79907226562 3108.6337890625 3107.86840820312 3107.7119140625 3107.89916992188 3107.87451171875 3107.53173828125 3106.67065429688 3105.46313476562 3104.13427734375 3102.40698242188 3100.1982421875 3097.62036132812 3095.04467773438 3092.1953125 3089.34814453125 3086.88891601562 3084.830078125 3083.21826171875 3082.28442382812 3081.8984375 3081.70947265625 3081.69091796875 3081.7060546875 3081.71215820312 3081.79663085938 3081.95288085938 3082.10791015625 3082.18725585938 3082.03588867188 3081.44409179688 3080.5732421875 3079.59228515625 3078.3515625 3076.92236328125 3075.47631835938 3074.03247070312 3073.03930664062 3072.90356445312 3072.88403320312 3072.7080078125 3072.18505859375 3071.57250976562 3070.96484375 3070.14038085938 3068.91455078125 3067.498046875 3066.02465820312 3064.2841796875 3062.32739257812 3060.19360351562 3057.85180664062 3055.02368164062 3051.9541015625 3049.24951171875 3046.80224609375 3044.11547851562 3041.35986328125 3039.48608398438 3038.72924804688 3038.34619140625 3037.966796875 3037.61450195312 3037.21264648438 3036.84716796875 3036.38549804688 3035.5859375 3034.51220703125 3033.43212890625 3032.43969726562 3031.50024414062 3030.41723632812 3029.27905273438 3028.25 3027.20678710938 3025.94750976562 3024.43627929688 3022.72265625 3020.74291992188 3018.54174804688 3016.45458984375 3014.97998046875 3014.16918945312 3013.69702148438 3013.357421875 3013.12646484375 3012.89819335938 3012.62622070312 3012.31689453125 3011.97607421875 3011.58959960938 3011.1142578125 3010.58569335938 3010.04516601562 3009.43627929688 3008.74389648438 3008.03686523438 3007.0556640625 3005.69287109375 3004.85961914062 3004.36450195312 3003.51513671875 3002.52075195312 3001.44897460938 3000.06298828125 2998.16748046875 2996.095703125 2994.2578125 2992.61572265625 2990.861328125 -3.4e+38 -3.4e+38 -3.4e+38 -3.4e+38 -3.4e+38 -3.4e+38 -3.4e+38 -3.4e+38 -3.4e+38 -3.4e+38 -3.4e+38 -3.4e+38 -3.4e+38 -3.4e+38 -3.4e+38 -3.4e+38 -3.4e+38 -3.4e+38 -3.4e+38 -3.4e+38 -3.4e+38 -3.4e+38 -3.4e+38 -3.4e+38 -3.4e+38 -3.4e+38 -3.4e+38 -3.4e+38 -3.4e+38 -3.4e+38 -3.4e+38 -3.4e+38 -3.4e+38 -3.4e+38
-3.4e+38 -3.4e+38 -3.4e+38 -3.4e+38 -3.4e+38 -3.4e+38 -3.4e+38 -3.4e+38 -3.4e+38 -3.4e+38 -3.4e+38 3204.85864257812 3206.04150390625 3207.29174804688 3208.5810546875 3209.76489257812 3210.73413085938 3211.64404296875 3212.4697265625 3213.11010742188 3213.47216796875 3213.64306640625 3213.69653320312 3213.58325195312 3213.36181640625 3212.99487304688 3212.47875976562 3211.94995117188 3211.4912109375 3210.96997070312 3210.46215820312 3209.98217773438 3209.53662109375 3208.92407226562 3208.07641601562 3207.07958984375 3205.68286132812 3203.482421875 3200.9765625 3198.68432617188 3196.09375 3192.541015625 3188.80932617188 3185.46069335938 3182.01318359375 3178.1064453125 3174.46118164062 3171.22216796875 3167.53515625 3163.70458984375 3160.47827148438 3157.18041992188 3153.06860351562 3149.53369140625 3146.99487304688 3144.88549804688 3142.81298828125 3140.75561523438 3138.966796875 3137.29443359375 3135.0576171875 3131.72314453125 -3.4e+38 -3.4e+38 -3.4e+38 -3.4e+38 -3.4e+38 3118.29028320312 3116.82861328125 3115.7138671875 3114.896484375 -3.4e+38 -3.4e+38 -3.4e+38 3111.78857421875 3110.78198242188 3109.693359375 3108.8828125 3108.4931640625 3108.88525390625 3109.60180664062 3110.14208984375 3110.30297851562 3109.7060546875 3108.46020507812 3107.0185546875 3105.29296875 3103.11181640625 3100.60522460938 3098.04809570312 3095.17504882812 3092.24145507812 3089.67333984375 3087.39453125 3085.58569335938 3084.80639648438 3084.52490234375 3084.28955078125 3084.10693359375 3083.98828125 3083.87182617188 3083.8740234375 3084.06811523438 3084.3916015625 3084.62060546875 3084.57202148438 3084.0107421875 3083.15600585938 3082.224609375 3081.07666015625 3079.7724609375 3078.49291992188 3077.24462890625 3076.43310546875 3076.43334960938 3076.46337890625 3076.29858398438 3075.73120117188 3075.0888671875 3074.45288085938 3073.54907226562 3072.26733398438 3070.87939453125 3069.47338867188 3067.76123046875 3065.73974609375 3063.53955078125 3061.16650390625 3058.3349609375 3055.1494140625 3052.18212890625 3049.46606445312 3046.88305664062 3044.91650390625 3043.71899414062 3042.984375 3042.39501953125 3041.865234375 3041.49975585938 3041.13256835938 3040.6611328125 3040.03198242188 3039.06982421875 3037.85864257812 3036.5830078125 3035.47583007812 3034.51391601562 3033.4873046875 3032.38745117188 3031.34643554688 3030.30395507812 3029.07568359375 3027.67260742188 3026.1923828125 3024.64526367188 3022.71044921875 3020.666015625 3019.2197265625 3018.03979492188 3017.06103515625 3016.51171875 3015.93090820312 3015.39038085938 3015.05224609375 3014.6435546875 3014.28369140625 3013.95922851562 3013.48828125 3012.94165039062 3012.33349609375 3011.47778320312 3010.48364257812 3009.486328125 3008.15234375 3006.79321289062 3005.90942382812 3004.96508789062 3003.78247070312 3002.5380859375 3001.3115234375 2999.8916015625 2997.94775390625 -3.4e+38 -3.4e+38 -3.4e+38 -3.4e+38 -3.4e+38 -3.4e+38 -3.4e+38 -3.4e+38 -3.4e+38 -3.4e+38 -3.4e+38 -3.4e+38 -3.4e+38 -3.4e+38 -3.4e+38 -3.4e+38 -3.4e+38 -3.4e+38 -3.4e+38 -3.4e+38 -3.4e+38 -3.4e+38 -3.4e+38 -3.4e+38 -3.4e+38 -3.4e+38 -3.4e+38 -3.4e+38 -3.4e+38 -3.4e+38 -3.4e+38 -3.4e+38 -3.4e+38 -3.4e+38 -3.4e+38 -3.4e+38 -3.4e+38 -3.4e+38
-3.4e+38 -3.4e+38 -3.4e+38 -3.4e+38 -3.4e+38 -3.4e+38 -3.4e+38 -3.4e+38 -3.4e+38 -3.4e+38 -3.4e+38 -3.4e+38 -3.4e+38 -3.4e+38 3208.86010742188 3210.25805664062 3211.42333984375 3212.52490234375 3213.80297851562 3214.99536132812 3215.69213867188 3216.11499023438 3216.3193359375 3216.25341796875 3215.98193359375 3215.58959960938 3215.1064453125 3214.58520507812 3214.07568359375 3213.45434570312 3212.76806640625 3212.16259765625 3211.7060546875 3211.03295898438 3210.28662109375 3209.41674804688 3208.24658203125 3206.12915039062 3203.24731445312 3200.51977539062 3197.8173828125 3194.40576171875 3190.62451171875 3187.255859375 3183.82250976562 3179.85083007812 3175.90380859375 3172.3984375 3168.65014648438 3164.98754882812 3161.74877929688 3158.60107421875 3154.740234375 3151.09838867188 3148.35107421875 3146.06079101562 3143.67919921875 3141.23168945312 3139.22192382812 3137.37231445312 3134.63403320312 -3.4e+38 -3.4e+38 -3.4e+38 -3.4e+38 -3.4e+38 -3.4e+38 -3.4e+38 -3.4e+38 -3.4e+38 -3.4e+38 -3.4e+38 -3.4e+38 -3.4e+38 -3.4e+38 -3.4e+38 -3.4e+38 3108.55151367188 3108.51586914062 3109.29345703125 3110.2890625 3111.33178710938 3111.93286132812 3111.77172851562 3110.94165039062 3109.84497070312 3108.35083007812 3106.23193359375 3103.66015625 3101.0146484375 3098.11962890625 3095.21264648438 3092.6298828125 3090.19091796875 3088.2021484375 3087.4013671875 3087.05224609375 3086.78198242188 3086.52172851562 3086.35034179688 3086.17822265625 3086.11840820312 3086.38891601562 3086.83349609375 3087.14965820312 3087.15698242188 3086.6181640625 3085.798828125 3084.9306640625 3083.8681640625 3082.68408203125 3081.6845703125 3080.9970703125 3080.61499023438 3080.44482421875 3080.27490234375 3080.0380859375 3079.5517578125 3078.88330078125 3078.11645507812 3077.09228515625 3075.74975585938 3074.36938476562 3073.04272460938 3071.31518554688 3069.1669921875 3066.912109375 3064.58618164062 3061.85107421875 3058.76098632812 3055.68286132812 3052.5771484375 3049.6298828125 3048.12866210938 3047.63745117188 3047.15014648438 3046.57299804688 3046.01904296875 3045.56713867188 3045.11376953125 3044.5625 3043.80419921875 3042.73120117188 3041.4033203125 3040.04516601562 3038.79760742188 3037.67163085938 3036.52758789062 3035.39282226562 3034.30053710938 3033.14819335938 3031.82348632812 3030.41186523438 3029.08056640625 3027.64721679688 3025.95678710938 3024.36767578125 3022.86401367188 3021.35424804688 3020.16357421875 3019.26684570312 3018.23681640625 3017.27758789062 3016.70361328125 3016.36889648438 3016.11645507812 3015.62133789062 3015.0498046875 3014.52172851562 3013.98486328125 3013.03002929688 3011.693359375 3010.31372070312 3008.68505859375 3007.03735351562 3005.68090820312 3004.44946289062 3003.08081054688 -3.4e+38 -3.4e+38 -3.4e+38 -3.4e+38 -3.4e+38 -3.4e+38 -3.4e+38 -3.4e+38 -3.4e+38 -3.4e+38 -3.4e+38 -3.4e+38 -3.4e+38 -3.4e+38 -3.4e+38 -3.4e+38 -3.4e+38 -3.4e+38 -3.4e+38 -3.4e+38 -3.4e+38 -3.4e+38 -3.4e+38 -3.4e+38 -3.4e+38 -3.4e+38 -3.4e+38 -3.4e+38 -3.4e+38 -3.4e+38 -3.4e+38 -3.4e+38 -3.4e+38 -3.4e+38 -3.4e+38 -3.4e+38 -3.4e+38 -3.4e+38 -3.4e+38 -3.4e+38 -3.4e+38 -3.4e+38
-3.4e+38 -3.4e+38 -3.4e+38 -3.4e+38 -3.4e+38 -3.4e+38 -3.4e+38 -3.4e+38 -3.4e+38 -3.4e+38 -3.4e+38 -3.4e+38 -3.4e+38 -3.4e+38 -3.4e+38 -3.4e+38 3211.32299804688 3212.65380859375 3214.501953125 3216.44799804688 3217.66772460938 3218.478515625 3218.88720703125 3218.8955078125 3218.61303710938 3218.15966796875 3217.6513671875 3217.119140625 3216.54077148438 3215.83276367188 3215.05493164062 3214.27075195312 3213.5439453125 3212.83911132812 3211.9912109375 3211.06616210938 3209.951171875 3207.77954101562 3204.6171875 3201.71142578125 3198.943359375 3195.58813476562 3191.8037109375 3188.42260742188 3184.88623046875 3180.78759765625 3176.65478515625 3172.94921875 3169.244140625 3165.5732421875 3162.2255859375 3159.12866210938 3155.60815429688 3152.10205078125 3149.38623046875 3147.03271484375 3144.14208984375 -3.4e+38 -3.4e+38 -3.4e+38 -3.4e+38 -3.4e+38 -3.4e+38 -3.4e+38 -3.4e+38 -3.4e+38 -3.4e+38 -3.4e+38 -3.4e+38 -3.4e+38 -3.4e+38 -3.4e+38 -3.4e+38 -3.4e+38 -3.4e+38 -3.4e+38 -3.4e+38 -3.4e+38 -3.4e+38 -3.4e+38 -3.4e+38 3111.22021484375 3112.15893554688 3112.6142578125 3112.517578125 3111.98852539062 3111.05981445312 3109.34301757812 3106.82373046875 3104.03198242188 3100.916015625 3097.99926757812 3095.55981445312 3093.24047851562 3091.23901367188 3090.10815429688 3089.51342773438 3089.18359375 3088.98876953125 3088.95166015625 3088.90209960938 3088.923828125 3089.220703125 3089.62866210938 3089.86059570312 3089.84106445312 3089.427734375 3088.7060546875 3087.87719726562 3086.80737304688 3085.64965820312 3084.85278320312 3084.6015625 3084.69067382812 3084.58618164062 3084.30615234375 3084.00048828125 3083.548828125 3082.8466796875 3081.91845703125 3080.83666992188 3079.40454101562 3077.896484375 3076.48999023438 3074.74267578125 3072.66333007812 3070.4140625 3068.0029296875 3065.24291992188 3062.39794921875 3059.62841796875 3056.71826171875 3053.91674804688 3052.26831054688 3051.63354492188 3051.1611328125 3050.64794921875 3050.14086914062 3049.67456054688 3049.18896484375 3048.68676757812 3047.84716796875 3046.51586914062 3045.05126953125 3043.6005859375 3042.28686523438 3041.0546875 3039.73876953125 3038.4912109375 3037.25610351562 3035.89013671875 3034.37377929688 3032.96411132812 3031.67846679688 3030.18969726562 3028.40307617188 3026.88940429688 3025.43920898438 3023.86083984375 3022.42651367188 3021.25341796875 3020.08471679688 3018.92700195312 3018.02026367188 3017.64404296875 3017.44555664062 3016.82690429688 3016.12036132812 3015.46826171875 3014.77758789062 3013.58154296875 3011.72241210938 3009.8642578125 3007.9736328125 3006.00366210938 -3.4e+38 -3.4e+38 -3.4e+38 -3.4e+38 -3.4e+38 -3.4e+38 -3.4e+38 -3.4e+38 -3.4e+38 -3.4e+38 -3.4e+38 -3.4e+38 -3.4e+38 -3.4e+38 -3.4e+38 -3.4e+38 -3.4e+38 -3.4e+38 -3.4e+38 -3.4e+38 -3.4e+38 -3.4e+38 -3.4e+38 -3.4e+38 -3.4e+38 -3.4e+38 -3.4e+38 -3.4e+38 -3.4e+38 -3.4e+38 -3.4e+38 -3.4e+38 -3.4e+38 -3.4e+38 -3.4e+38 -3.4e+38 -3.4e+38 -3.4e+38 -3.4e+38 -3.4e+38 -3.4e+38 -3.4e+38 -3.4e+38 -3.4e+38 -3.4e+38
-3.4e+38 -3.4e+38 -3.4e+38 -3.4e+38 -3.4e+38 -3.4e+38 -3.4e+38 -3.4e+38 -3.4e+38 -3.4e+38 -3.4e+38 -3.4e+38 -3.4e+38 -3.4e+38 -3.4e+38 -3.4e+38 -3.4e+38 -3.4e+38 -3.4e+38 -3.4e+38 3218.81176757812 3220.2197265625 3220.96997070312 3221.060546875 3220.84399414062 3220.4462890625 3220.01245117188 3219.6298828125 3218.95361328125 3217.84008789062 3216.79345703125 3215.84033203125 3214.998046875 3214.10083007812 3212.98413085938 3211.90161132812 3210.60424804688 3208.19848632812 3205.14013671875 3202.23681640625 3199.25415039062 3195.87133789062 -3.4e+38 -3.4e+38 -3.4e+38 -3.4e+38 -3.4e+38 -3.4e+38 -3.4e+38 -3.4e+38 -3.4e+38 -3.4e+38 -3.4e+38 -3.4e+38 -3.4e+38 -3.4e+38 -3.4e+38 -3.4e+38 -3.4e+38 -3.4e+38 -3.4e+38 -3.4e+38 -3.4e+38 -3.4e+38 -3.4e+38 -3.4e+38 -3.4e+38 -3.4e+38 -3.4e+38 -3.4e+38 -3.4e+38 -3.4e+38 -3.4e+38 -3.4e+38 -3.4e+38 -3.4e+38 -3.4e+38 -3.4e+38 -3.4e+38 -3.4e+38 -3.4e+38 -3.4e+38 -3.4e+38 -3.4e+38 3112.6923828125 3112.81591796875 3112.61840820312 3111.63623046875 3109.73974609375 3107.03247070312 3103.4248046875 3100.12768554688 3097.806640625 3095.75952148438 3093.94653320312 3092.62866210938 3091.8984375 3091.54370117188 3091.49145507812 3091.7822265625 3091.99682617188 3092.21557617188 3092.48974609375 3092.75219726562 3092.79760742188 3092.70361328125 3092.42749023438 3091.89599609375 3091.22998046875 3090.30200195312 3089.248046875 3088.51806640625 3088.3427734375 3088.62890625 3088.66796875 3088.46704101562 3088.20166015625 3087.75512695312 3086.947265625 3085.8994140625 3084.7216796875 3083.18139648438 3081.431640625 3079.76318359375 3077.8935546875 3075.89892578125 3073.79907226562 3071.39819335938 3068.59741210938 3065.82373046875 3063.32666015625 3060.76147460938 3058.44165039062 3057.14624023438 3056.30126953125 3055.57421875 3054.89672851562 3054.26611328125 3053.74340820312 3053.16430664062 3052.46435546875 3051.4873046875 3050.17358398438 3048.67822265625 3047.17065429688 3045.76635742188 3044.47924804688 3043.0380859375 3041.51806640625 3040.05615234375 3038.5439453125 3036.94140625 3035.455078125 3034.10205078125 3032.55883789062 3030.57788085938 3028.79638671875 3027.29272460938 3025.5419921875 3023.82177734375 3022.52856445312 3021.34643554688 3020.00708007812 3018.98217773438 3018.48852539062 3017.9189453125 3017.0244140625 3015.98168945312 3014.96923828125 3013.9130859375 3012.44897460938 -3.4e+38 -3.4e+38 -3.4e+38 -3.4e+38 -3.4e+38 -3.4e+38 -3.4e+38 -3.4e+38 -3.4e+38 -3.4e+38 -3.4e+38 -3.4e+38 -3.4e+38 -3.4e+38 -3.4e+38 -3.4e+38 -3.4e+38 -3.4e+38 -3.4e+38 -3.4e+38 -3.4e+38 -3.4e+38 -3.4e+38 -3.4e+38 -3.4e+38 -3.4e+38 -3.4e+38 -3.4e+38 -3.4e+38 -3.4e+38 -3.4e+38 -3.4e+38 -3.4e+38 -3.4e+38 -3.4e+38 -3.4e+38 -3.4e+38 -3.4e+38 -3.4e+38 -3.4e+38 -3.4e+38 -3.4e+38 -3.4e+38 -3.4e+38 -3.4e+38 -3.4e+38 -3.4e+38 -3.4e+38 -3.4e+38
-3.4e+38 -3.4e+38 -3.4e+38 -3.4e+38 -3.4e+38 -3.4e+38 -3.4e+38 -3.4e+38 -3.4e+38 -3.4e+38 -3.4e+38 -3.4e+38 -3.4e+38 -3.4e+38 -3.4e+38 -3.4e+38 -3.4e+38 -3.4e+38 -3.4e+38 -3.4e+38 -3.4e+38 3220.50122070312 3221.72436523438 3222.26416015625 3222.30126953125 3222.06323242188 3221.71875 3221.36669921875 3220.69091796875 3219.37158203125 3217.92749023438 3216.865234375 3215.8642578125 3214.89990234375 3213.77612304688 3212.34692382812 3210.716796875 -3.4e+38 -3.4e+38 -3.4e+38 -3.4e+38 -3.4e+38 -3.4e+38 -3.4e+38 -3.4e+38 -3.4e+38 -3.4e+38 -3.4e+38 -3.4e+38 -3.4e+38 -3.4e+38 -3.4e+38 -3.4e+38 -3.4e+38 -3.4e+38 -3.4e+38 -3.4e+38 -3.4e+38 -3.4e+38 -3.4e+38 -3.4e+38 -3.4e+38 -3.4e+38 -3.4e+38 -3.4e+38 -3.4e+38 -3.4e+38 -3.4e+38 -3.4e+38 -3.4e+38 -3.4e+38 -3.4e+38 -3.4e+38 -3.4e+38 -3.4e+38 -3.4e+38 -3.4e+38 -3.4e+38 -3.4e+38 -3.4e+38 -3.4e+38 -3.4e+38 -3.4e+38 -3.4e+38 -3.4e+38 -3.4e+38 3112.49682617188 3112.34912109375 3111.43359375 3109.283203125 3105.49487304688 3101.65087890625 3099.30688476562 3097.46850585938 3095.802734375 3094.65283203125 3094.09057617188 3093.86206054688 3094.0009765625 3094.57446289062 3095.08959960938 3095.49072265625 3095.76953125 3095.97924804688 3095.98486328125 3095.81982421875 3095.55883789062 3095.2158203125 3094.81103515625 3094.236328125 3093.59643554688 3093.13037109375 3092.89990234375 3092.935546875 3092.94506835938 3092.89453125 3092.80883789062 3092.38232421875 3091.35034179688 3090.09912109375 3088.64965820312 3086.83813476562 3084.80078125 3082.865234375 3080.80908203125 3078.70678710938 3076.68872070312 3074.57177734375 3071.94995117188 3069.17407226562 3066.7958984375 3064.50170898438 3062.63818359375 3061.6787109375 3060.90551757812 3060.08349609375 3059.25 3058.5263671875 3057.87353515625 3057.17578125 3056.1953125 3054.95874023438 3053.66162109375 3052.18115234375 3050.6455078125 3049.28369140625 3047.94995117188 3046.26220703125 3044.42358398438 3042.81420898438 3041.10180664062 3039.33129882812 3037.89672851562 3036.49243164062 3034.75854492188 3032.63842773438 3030.466796875 3028.62329101562 3026.70825195312 3024.7353515625 3023.087890625 3021.697265625 3020.18994140625 3019.0126953125 3018.10913085938 3017.1015625 -3.4e+38 -3.4e+38 -3.4e+38 -3.4e+38 -3.4e+38 -3.4e+38 -3.4e+38 -3.4e+38 -3.4e+38 -3.4e+38 -3.4e+38 -3.4e+38 -3.4e+38 -3.4e+38 -3.4e+38 -3.4e+38 -3.4e+38 -3.4e+38 -3.4e+38 -3.4e+38 -3.4e+38 -3.4e+38 -3.4e+38 -3.4e+38 -3.4e+38 -3.4e+38 -3.4e+38 -3.4e+38 -3.4e+38 -3.4e+38 -3.4e+38 -3.4e+38 -3.4e+38 -3.4e+38 -3.4e+38 -3.4e+38 -3.4e+38 -3.4e+38 -3.4e+38 -3.4e+38 -3.4e+38 -3.4e+38 -3.4e+38 -3.4e+38 -3.4e+38 -3.4e+38 -3.4e+38 -3.4e+38 -3.4e+38 -3.4e+38 -3.4e+38 -3.4e+38 -3.4e+38 -3.4e+38
-3.4e+38 -3.4e+38 -3.4e+38 -3.4e+38 -3.4e+38 -3.4e+38 -3.4e+38 -3.4e+38 -3.4e+38 -3.4e+38 -3.4e+38 -3.4e+38 -3.4e+38 -3.4e+38 -3.4e+38 -3.4e+38 -3.4e+38 -3.4e+38 -3.4e+38 -3.4e+38 -3.4e+38 -3.4e+38 -3.4e+38 -3.4e+38 3222.63525390625 3222.9560546875 3222.849609375 3222.23291015625 3221.24609375 3219.61303710938 3217.90454101562 3216.92626953125 3216.30908203125 3215.30908203125 3213.66137695312 -3.4e+38 -3.4e+38 -3.4e+38 -3.4e+38 -3.4e+38 -3.4e+38 -3.4e+38 -3.4e+38 -3.4e+38 -3.4e+38 -3.4e+38 -3.4e+38 -3.4e+38 -3.4e+38 -3.4e+38 -3.4e+38 -3.4e+38 -3.4e+38 -3.4e+38 -3.4e+38 -3.4e+38 -3.4e+38 -3.4e+38 -3.4e+38 -3.4e+38 -3.4e+38 -3.4e+38 -3.4e+38 -3.4e+38 -3.4e+38 -3.4e+38 -3.4e+38 -3.4e+38 -3.4e+38 -3.4e+38 -3.4e+38 -3.4e+38 -3.4e+38 -3.4e+38 -3.4e+38 -3.4e+38 -3.4e+38 -3.4e+38 -3.4e+38 -3.4e+38 -3.4e+38 -3.4e+38 -3.4e+38 -3.4e+38 -3.4e+38 -3.4e+38 -3.4e+38 3111.38354492188 3111.08837890625 3109.81762695312 3106.806640625 3103.111328125 3100.6015625 3098.73193359375 3097.01049804688 3095.92431640625 3095.64819335938 3095.77221679688 3096.21948242188 3096.98388671875 3097.75561523438 3098.22509765625 3098.48193359375 3098.6484375 3098.6787109375 3098.57592773438 3098.41918945312 3098.25805664062 3098.08325195312 3097.87719726562 3097.6728515625 3097.4755859375 3097.29760742188 3097.21362304688 3097.2412109375 3097.2841796875 3097.33471679688 3097.10986328125 3096.02880859375 3094.46655273438 3092.71704101562 3090.57763671875 3088.19921875 3085.86303710938 3083.50366210938 3081.31494140625 3079.30224609375 3077.30078125 3074.88330078125 3072.3017578125 3070.20288085938 3068.57690429688 3067.30712890625 3066.33715820312 3065.55786132812 3064.767578125 3063.84521484375 3062.99829101562 3062.19848632812 3061.21118164062 3059.86376953125 3058.43383789062 3057.12573242188 3055.60693359375 3054.03271484375 3052.6396484375 3051.17993164062 3049.20483398438 3047.15673828125 3045.4619140625 3043.56689453125 3041.5126953125 3039.90869140625 3038.48168945312 3036.66186523438 3034.1669921875 3031.53173828125 3029.34497070312 3027.0419921875 3024.75390625 3022.8427734375 3021.1650390625 -3.4e+38 -3.4e+38 -3.4e+38 -3.4e+38 -3.4e+38 -3.4e+38 -3.4e+38 -3.4e+38 -3.4e+38 -3.4e+38 -3.4e+38 -3.4e+38 -3.4e+38 -3.4e+38 -3.4e+38 -3.4e+38 -3.4e+38 -3.4e+38 -3.4e+38 -3.4e+38 -3.4e+38 -3.4e+38 -3.4e+38 -3.4e+38 -3.4e+38 -3.4e+38 -3.4e+38 -3.4e+38 -3.4e+38 -3.4e+38 -3.4e+38 -3.4e+38 -3.4e+38 -3.4e+38 -3.4e+38 -3.4e+38 -3.4e+38 -3.4e+38 -3.4e+38 -3.4e+38 -3.4e+38 -3.4e+38 -3.4e+38 -3.4e+38 -3.4e+38 -3.4e+38 -3.4e+38 -3.4e+38 -3.4e+38 -3.4e+38 -3.4e+38 -3.4e+38 -3.4e+38 -3.4e+38 -3.4e+38 -3.4e+38 -3.4e+38 -3.4e+38
-3.4e+38 -3.4e+38 -3.4e+38 -3.4e+38 -3.4e+38 -3.4e+38 -3.4e+38 -3.4e+38 -3.4e+38 -3.4e+38 -3.4e+38 -3.4e+38 -3.4e+38 -3.4e+38 -3.4e+38 -3.4e+38 -3.4e+38 -3.4e+38 -3.4e+38 -3.4e+38 -3.4e+38 -3.4e+38 -3.4e+38 -3.4e+38 -3.4e+38 -3.4e+38 3222.25317382812 3221.90893554688 3220.64208984375 3218.89208984375 -3.4e+38 -3.4e+38 3215.3994140625 3214.34155273438 -3.4e+38 -3.4e+38 -3.4e+38 -3.4e+38 -3.4e+38 -3.4e+38 -3.4e+38 -3.4e+38 -3.4e+38 -3.4e+38 -3.4e+38 -3.4e+38 -3.4e+38 -3.4e+38 -3.4e+38 -3.4e+38 -3.4e+38 -3.4e+38 -3.4e+38 -3.4e+38 -3.4e+38 -3.4e+38 -3.4e+38 -3.4e+38 -3.4e+38 -3.4e+38 -3.4e+38 -3.4e+38 -3.4e+38 -3.4e+38 -3.4e+38 -3.4e+38 -3.4e+38 -3.4e+38 -3.4e+38 -3.4e+38 -3.4e+38 -3.4e+38 -3.4e+38 -3.4e+38 -3.4e+38 -3.4e+38 -3.4e+38 -3.4e+38 -3.4e+38 -3.4e+38 -3.4e+38 -3.4e+38 -3.4e+38 -3.4e+38 -3.4e+38 -3.4e+38 -3.4e+38 -3.4e+38 -3.4e+38 3108.43676757812 3106.75952148438 3104.11279296875 3101.6337890625 3099.56372070312 3097.751953125 3096.68603515625 3096.62475585938 3097.083984375 3097.84887695312 3098.728515625 3099.4609375 3099.92553710938 3100.19873046875 3100.40014648438 3100.49487304688 3100.5283203125 3100.54711914062 3100.50903320312 3100.39794921875 3100.40673828125 3100.3564453125 3100.29272460938 3100.22875976562 3100.18017578125 3100.28002929688 3100.37084960938 3100.4033203125 3100.23559570312 3099.47265625 3098.34936523438 3096.9130859375 3094.873046875 3092.17407226562 3089.25219726562 3086.33544921875 3083.82568359375 3081.84326171875 3079.92016601562 3077.61645507812 3075.14990234375 3073.3671875 3072.45654296875 3071.85278320312 3071.25561523438 3070.66064453125 3069.98901367188 3069.0380859375 3067.89208984375 3066.85107421875 3065.578125 3063.91137695312 3062.173828125 3060.56811523438 3058.98901367188 3057.3955078125 3055.87377929688 3054.19775390625 3052.01293945312 3049.83642578125 3047.88012695312 3045.66430664062 3043.4208984375 3041.56079101562 3039.970703125 3037.92504882812 3035.09716796875 3031.99389648438 -3.4e+38 -3.4e+38 -3.4e+38 -3.4e+38 -3.4e+38 -3.4e+38 -3.4e+38 -3.4e+38 -3.4e+38 -3.4e+38 -3.4e+38 -3.4e+38 -3.4e+38 -3.4e+38 -3.4e+38 -3.4e+38 -3.4e+38 -3.4e+38 -3.4e+38 -3.4e+38 -3.4e+38 -3.4e+38 -3.4e+38 -3.4e+38 -3.4e+38 -3.4e+38 -3.4e+38 -3.4e+38 -3.4e+38 -3.4e+38 -3.4e+38 -3.4e+38 -3.4e+38 -3.4e+38 -3.4e+38 -3.4e+38 -3.4e+38 -3.4e+38 -3.4e+38 -3.4e+38 -3.4e+38 -3.4e+38 -3.4e+38 -3.4e+38 -3.4e+38 -3.4e+38 -3.4e+38 -3.4e+38 -3.4e+38 -3.4e+38 -3.4e+38 -3.4e+38 -3.4e+38 -3.4e+38 -3.4e+38 -3.4e+38 -3.4e+38 -3.4e+38 -3.4e+38 -3.4e+38 -3.4e+38 -3.4e+38 -3.4e+38
-3.4e+38 -3.4e+38 -3.4e+38 -3.4e+38 -3.4e+38 -3.4e+38 -3.4e+38 -3.4e+38 -3.4e+38 -3.4e+38 -3.4e+38 -3.4e+38 -3.4e+38 -3.4e+38 -3.4e+38 -3.4e+38 -3.4e+38 -3.4e+38 -3.4e+38 -3.4e+38 -3.4e+38 -3.4e+38 -3.4e+38 -3.4e+38 -3.4e+38 -3.4e+38 -3.4e+38 -3.4e+38 -3.4e+38 -3.4e+38 -3.4e+38 -3.4e+38 -3.4e+38 -3.4e+38 -3.4e+38 -3.4e+38 -3.4e+38 -3.4e+38 -3.4e+38 -3.4e+38 -3.4e+38 -3.4e+38 -3.4e+38 -3.4e+38 -3.4e+38 -3.4e+38 -3.4e+38 -3.4e+38 -3.4e+38 -3.4e+38 -3.4e+38 -3.4e+38 -3.4e+38 -3.4e+38 -3.4e+38 -3.4e+38 -3.4e+38 -3.4e+38 -3.4e+38 -3.4e+38 -3.4e+38 -3.4e+38 -3.4e+38 -3.4e+38 -3.4e+38 -3.4e+38 -3.4e+38 -3.4e+38 -3.4e+38 -3.4e+38 -3.4e+38 -3.4e+38 -3.4e+38 -3.4e+38 -3.4e+38 -3.4e+38 -3.4e+38 -3.4e+38 -3.4e+38 -3.4e+38 -3.4e+38 -3.4e+38 -3.4e+38 -3.4e+38 -3.4e+38 -3.4e+38 -3.4e+38 -3.4e+38 -3.4e+38 -3.4e+38 -3.4e+38 3103.73681640625 3101.83666992188 3099.81884765625 3098.001953125 3097.15283203125 3097.16552734375 3097.75390625 3098.77563476562 3099.7197265625 3100.42651367188 3100.94287109375 3101.3203125 3101.65307617188 3101.8447265625 3102.00170898438 3102.1513671875 3102.091796875 3101.97802734375 3102.173828125 3102.236328125 3102.24853515625 3102.224609375 3102.26196289062 3102.419921875 3102.5166015625 3102.59301757812 3102.44384765625 3101.85791015625 3101.130859375 3100.17114257812 3098.71264648438 3096.25439453125 3093.03637695312 3089.65185546875 3086.6123046875 3084.3974609375 3082.5078125 3080.34838867188 3078.29956054688 3076.81127929688 3076.025390625 3075.62573242188 3075.28002929688 3074.93823242188 3074.505859375 3073.7900390625 3072.82202148438 3071.75927734375 3070.36840820312 3068.607421875 3066.66528320312 3064.74267578125 3062.75317382812 3060.89086914062 3059.20751953125 3057.23071289062 3054.7333984375 3052.05810546875 3049.564453125 3047.177734375 3044.7919921875 3042.65649414062 3040.90600585938 3038.65087890625 -3.4e+38 -3.4e+38 -3.4e+38 -3.4e+38 -3.4e+38 -3.4e+38 -3.4e+38 -3.4e+38 -3.4e+38 -3.4e+38 -3.4e+38 -3.4e+38 -3.4e+38 -3.4e+38 -3.4e+38 -3.4e+38 -3.4e+38 -3.4e+38 -3.4e+38 -3.4e+38 -3.4e+38 -3.4e+38 -3.4e+38 -3.4e+38 -3.4e+38 -3.4e+38 -3.4e+38 -3.4e+38 -3.4e+38 -3.4e+38 -3.4e+38 -3.4e+38 -3.4e+38 -3.4e+38 -3.4e+38 -3.4e+38 -3.4e+38 -3.4e+38 -3.4e+38 -3.4e+38 -3.4e+38 -3.4e+38 -3.4e+38 -3.4e+38 -3.4e+38 -3.4e+38 -3.4e+38 -3.4e+38 -3.4e+38 -3.4e+38 -3.4e+38 -3.4e+38 -3.4e+38 -3.4e+38 -3.4e+38 -3.4e+38 -3.4e+38 -3.4e+38 -3.4e+38 -3.4e+38 -3.4e+38 -3.4e+38 -3.4e+38 -3.4e+38 -3.4e+38
-3.4e+38 -3.4e+38 -3.4e+38 -3.4e+38 -3.4e+38 -3.4e+38 -3.4e+38 -3.4e+38 -3.4e+38 -3.4e+38 -3.4e+38 -3.4e+38 -3.4e+38 -3.4e+38 -3.4e+38 -3.4e+38 -3.4e+38 -3.4e+38 -3.4e+38 -3.4e+38 -3.4e+38 -3.4e+38 -3.4e+38 -3.4e+38 -3.4e+38 -3.4e+38 -3.4e+38 -3.4e+38 -3.4e+38 -3.4e+38 -3.4e+38 -3.4e+38 -3.4e+38 -3.4e+38 -3.4e+38 -3.4e+38 -3.4e+38 -3.4e+38 -3.4e+38 -3.4e+38 -3.4e+38 -3.4e+38 -3.4e+38 -3.4e+38 -3.4e+38 -3.4e+38 -3.4e+38 -3.4e+38 -3.4e+38 -3.4e+38 -3.4e+38 -3.4e+38 -3.4e+38 -3.4e+38 -3.4e+38 -3.4e+38 -3.4e+38 -3.4e+38 -3.4e+38 -3.4e+38 -3.4e+38 -3.4e+38 -3.4e+38 -3.4e+38 -3.4e+38 -3.4e+38 -3.4e+38 -3.4e+38 -3.4e+38 -3.4e+38 -3.4e+38 -3.4e+38 -3.4e+38 -3.4e+38 -3.4e+38 -3.4e+38 -3.4e+38 -3.4e+38 -3.4e+38 -3.4e+38 -3.4e+38 -3.4e+38 -3.4e+38 -3.4e+38 -3.4e+38 -3.4e+38 -3.4e+38 -3.4e+38 -3.4e+38 -3.4e+38 -3.4e+38 -3.4e+38 3100.97338867188 3099.31323242188 3097.65161132812 3096.85888671875 3096.83032226562 3097.57446289062 3098.95361328125 3100.2802734375 3101.287109375 3101.966796875 3102.40576171875 3102.76440429688 3103.041015625 3103.27465820312 3103.41430664062 3103.4248046875 3103.41674804688 3103.59985351562 3103.87084960938 3104.09448242188 3104.16528320312 3104.26635742188 3104.4658203125 3104.60375976562 3104.8017578125 3104.73193359375 3104.30004882812 3103.76123046875 3102.84350585938 3101.40063476562 3099.4462890625 3096.78344726562 3093.302734375 3089.87963867188 3087.29443359375 3085.09130859375 3082.9990234375 3081.38134765625 3080.34545898438 3079.6240234375 3079.11865234375 3078.7177734375 3078.41870117188 3078.0126953125 3077.3701171875 3076.5458984375 3075.69067382812 3074.61474609375 3073.3173828125 3071.6611328125 3069.56689453125 3067.12719726562 3064.71484375 3062.56860351562 3060.20776367188 3057.36865234375 3054.21142578125 3051.12622070312 3048.37963867188 3045.86206054688 3043.32373046875 3041.01635742188 -3.4e+38 -3.4e+38 -3.4e+38 -3.4e+38 -3.4e+38 -3.4e+38 -3.4e+38 -3.4e+38 -3.4e+38 -3.4e+38 -3.4e+38 -3.4e+38 -3.4e+38 -3.4e+38 -3.4e+38 -3.4e+38 -3.4e+38 -3.4e+38 -3.4e+38 -3.4e+38 -3.4e+38 -3.4e+38 -3.4e+38 -3.4e+38 -3.4e+38 -3.4e+38 -3.4e+38 -3.4e+38 -3.4e+38 -3.4e+38 -3.4e+38 -3.4e+38 -3.4e+38 -3.4e+38 -3.4e+38 -3.4e+38 -3.4e+38 -3.4e+38 -3.4e+38 -3.4e+38 -3.4e+38 -3.4e+38 -3.4e+38 -3.4e+38 -3.4e+38 -3.4e+38 -3.4e+38 -3.4e+38 -3.4e+38 -3.4e+38 -3.4e+38 -3.4e+38 -3.4e+38 -3.4e+38 -3.4e+38 -3.4e+38 -3.4e+38 -3.4e+38 -3.4e+38 -3.4e+38 -3.4e+38 -3.4e+38 -3.4e+38 -3.4e+38 -3.4e+38 -3.4e+38
-3.4e+38 -3.4e+38 -3.4e+38 -3.4e+38 -3.4e+38 -3.4e+38 -3.4e+38 -3.4e+38 -3.4e+38 -3.4e+38 -3.4e+38 -3.4e+38 -3.4e+38 -3.4e+38 -3.4e+38 -3.4e+38 -3.4e+38 -3.4e+38 -3.4e+38 -3.4e+38 -3.4e+38 -3.4e+38 -3.4e+38 -3.4e+38 -3.4e+38 -3.4e+38 -3.4e+38 -3.4e+38 -3.4e+38 -3.4e+38 -3.4e+38 -3.4e+38 -3.4e+38 -3.4e+38 -3.4e+38 -3.4e+38 -3.4e+38 -3.4e+38 -3.4e+38 -3.4e+38 -3.4e+38 -3.4e+38 -3.4e+38 -3.4e+38 -3.4e+38 -3.4e+38 -3.4e+38 -3.4e+38 -3.4e+38 -3.4e+38 -3.4e+38 -3.4e+38 -3.4e+38 -3.4e+38 -3.4e+38 -3.4e+38 -3.4e+38 -3.4e+38 -3.4e+38 -3.4e+38 -3.4e+38 -3.4e+38 -3.4e+38 -3.4e+38 -3.4e+38 -3.4e+38 -3.4e+38 -3.4e+38 -3.4e+38 -3.4e+38 -3.4e+38 -3.4e+38 -3.4e+38 -3.4e+38 -3.4e+38 -3.4e+38 -3.4e+38 -3.4e+38 -3.4e+38 -3.4e+38 -3.4e+38 -3.4e+38 -3.4e+38 -3.4e+38 -3.4e+38 -3.4e+38 -3.4e+38 -3.4e+38 -3.4e+38 -3.4e+38 -3.4e+38 -3.4e+38 -3.4e+38 -3.4e+38 -3.4e+38 -3.4e+38 -3.4e+38 -3.4e+38 -3.4e+38 -3.4e+38 -3.4e+38 3102.94775390625 3103.48120117188 3103.85278320312 3104.11889648438 3104.34497070312 3104.490234375 3104.61401367188 3104.72314453125 3104.9013671875 3105.2705078125 3105.5908203125 3105.8388671875 3106.07763671875 3106.36791992188 3106.5595703125 3106.77197265625 3106.83154296875 3106.73950195312 3106.44262695312 3105.65356445312 3104.1640625 3102.27783203125 3100.02221679688 3096.89184570312 3093.47583007812 3090.60473632812 3087.95849609375 3085.45263671875 3083.87255859375 3083.24145507812 3082.7490234375 3082.29223632812 3081.90625 3081.51440429688 3081.09057617188 3080.4619140625 3079.70092773438 3078.96166992188 3078.00341796875 3076.87109375 3075.5361328125 3073.89282226562 3071.50634765625 3068.61010742188 3066.048828125 3063.34399414062 3060.2177734375 3056.65673828125 3052.990234375 3049.7138671875 3046.68481445312 -3.4e+38 -3.4e+38 -3.4e+38 -3.4e+38 -3.4e+38 -3.4e+38 -3.4e+38 -3.4e+38 -3.4e+38 -3.4e+38 -3.4e+38 -3.4e+38 -3.4e+38 -3.4e+38 -3.4e+38 -3.4e+38 -3.4e+38 -3.4e+38 -3.4e+38 -3.4e+38 -3.4e+38 -3.4e+38 -3.4e+38 -3.4e+38 -3.4e+38 -3.4e+38 -3.4e+38 -3.4e+38 -3.4e+38 -3.4e+38 -3.4e+38 -3.4e+38 -3.4e+38 -3.4e+38 -3.4e+38 -3.4e+38 -3.4e+38 -3.4e+38 -3.4e+38 -3.4e+38 -3.4e+38 -3.4e+38 -3.4e+38 -3.4e+38 -3.4e+38 -3.4e+38 -3.4e+38 -3.4e+38 -3.4e+38 -3.4e+38 -3.4e+38 -3.4e+38 -3.4e+38 -3.4e+38 -3.4e+38 -3.4e+38 -3.4e+38 -3.4e+38 -3.4e+38 -3.4e+38 -3.4e+38 -3.4e+38 -3.4e+38 -3.4e+38 -3.4e+38 -3.4e+38 -3.4e+38 -3.4e+38
-3.4e+38 -3.4e+38 -3.4e+38 -3.4e+38 -3.4e+38 -3.4e+38 -3.4e+38 -3.4e+38 -3.4e+38 -3.4e+38 -3.4e+38 -3.4e+38 -3.4e+38 -3.4e+38 -3.4e+38 -3.4e+38 -3.4e+38 -3.4e+38 -3.4e+38 -3.4e+38 -3.4e+38 -3.4e+38 -3.4e+38 -3.4e+38 -3.4e+38 -3.4e+38 -3.4e+38 -3.4e+38 -3.4e+38 -3.4e+38 -3.4e+38 -3.4e+38 -3.4e+38 -3.4e+38 -3.4e+38 -3.4e+38 -3.4e+38 -3.4e+38 -3.4e+38 -3.4e+38 -3.4e+38 -3.4e+38 -3.4e+38 -3.4e+38 -3.4e+38 -3.4e+38 -3.4e+38 -3.4e+38 -3.4e+38 -3.4e+38 -3.4e+38 -3.4e+38 -3.4e+38 -3.4e+38 -3.4e+38 -3.4e+38 -3.4e+38 -3.4e+38 -3.4e+38 -3.4e+38 -3.4e+38 -3.4e+38 -3.4e+38 -3.4e+38 -3.4e+38 -3.4e+38 -3.4e+38 -3.4e+38 -3.4e+38 -3.4e+38 -3.4e+38 -3.4e+38 -3.4e+38 -3.4e+38 -3.4e+38 -3.4e+38 -3.4e+38 -3.4e+38 -3.4e+38 -3.4e+38 -3.4e+38 -3.4e+38 -3.4e+38 -3.4e+38 -3.4e+38 -3.4e+38 -3.4e+38 -3.4e+38 -3.4e+38 -3.4e+38 -3.4e+38 -3.4e+38 -3.4e+38 -3.4e+38 -3.4e+38 -3.4e+38 -3.4e+38 -3.4e+38 -3.4e+38 -3.4e+38 -3.4e+38 -3.4e+38 3104.39526367188 3104.55444335938 3104.84204101562 3105.13061523438 3105.3720703125 3105.56079101562 3105.76245117188 3106.05419921875 3106.52490234375 3106.91528320312 3107.2451171875 3107.56787109375 3107.9619140625 3108.35473632812 3108.67993164062 3108.87890625 3109.10986328125 3109.1171875 3108.572265625 3107.20385742188 3105.18969726562 3102.89770507812 3100.02270507812 3097.00244140625 3094.19091796875 3091.38452148438 3088.6875 3087.0400390625 3086.4423828125 3085.95849609375 3085.42211914062 3084.96313476562 3084.55834960938 3084.0869140625 3083.37841796875 3082.62231445312 3081.8994140625 3080.99072265625 3079.86401367188 3078.62329101562 3077.13256835938 3074.96337890625 3072.31909179688 3069.67846679688 3066.68310546875 3063.1328125 3059.1220703125 3055.00708007812 -3.4e+38 -3.4e+38 -3.4e+38 -3.4e+38 -3.4e+38 -3.4e+38 -3.4e+38 -3.4e+38 -3.4e+38 -3.4e+38 -3.4e+38 -3.4e+38 -3.4e+38 -3.4e+38 -3.4e+38 -3.4e+38 -3.4e+38 -3.4e+38 -3.4e+38 -3.4e+38 -3.4e+38 -3.4e+38 -3.4e+38 -3.4e+38 -3.4e+38 -3.4e+38 -3.4e+38 -3.4e+38 -3.4e+38 -3.4e+38 -3.4e+38 -3.4e+38 -3.4e+38 -3.4e+38 -3.4e+38 -3.4e+38 -3.4e+38 -3.4e+38 -3.4e+38 -3.4e+38 -3.4e+38 -3.4e+38 -3.4e+38 -3.4e+38 -3.4e+38 -3.4e+38 -3.4e+38 -3.4e+38 -3.4e+38 -3.4e+38 -3.4e+38 -3.4e+38 -3.4e+38 -3.4e+38 -3.4e+38 -3.4e+38 -3.4e+38 -3.4e+38 -3.4e+38 -3.4e+38 -3.4e+38 -3.4e+38 -3.4e+38 -3.4e+38 -3.4e+38 -3.4e+38 -3.4e+38 -3.4e+38 -3.4e+38 -3.4e+38
-3.4e+38 -3.4e+38 -3.4e+38 -3.4e+38 -3.4e+38 -3.4e+38 -3.4e+38 -3.4e+38 -3.4e+38 -3.4e+38 -3.4e+38 -3.4e+38 -3.4e+38 -3.4e+38 -3.4e+38 -3.4e+38 -3.4e+38 -3.4e+38 -3.4e+38 -3.4e+38 -3.4e+38 -3.4e+38 -3.4e+38 -3.4e+38 -3.4e+38 -3.4e+38 -3.4e+38 -3.4e+38 -3.4e+38 -3.4e+38 -3.4e+38 -3.4e+38 -3.4e+38 -3.4e+38 -3.4e+38 -3.4e+38 -3.4e+38 -3.4e+38 -3.4e+38 -3.4e+38 -3.4e+38 -3.4e+38 -3.4e+38 -3.4e+38 -3.4e+38 -3.4e+38 -3.4e+38 -3.4e+38 -3.4e+38 -3.4e+38 -3.4e+38 -3.4e+38 -3.4e+38 -3.4e+38 -3.4e+38 -3.4e+38 -3.4e+38 -3.4e+38 -3.4e+38 -3.4e+38 -3.4e+38 -3.4e+38 -3.4e+38 -3.4e+38 -3.4e+38 -3.4e+38 -3.4e+38 -3.4e+38 -3.4e+38 -3.4e+38 -3.4e+38 -3.4e+38 -3.4e+38 -3.4e+38 -3.4e+38 -3.4e+38 -3.4e+38 -3.4e+38 -3.4e+38 -3.4e+38 -3.4e+38 -3.4e+38 -3.4e+38 -3.4e+38 -3.4e+38 -3.4e+38 -3.4e+38 -3.4e+38 -3.4e+38 -3.4e+38 -3.4e+38 -3.4e+38 -3.4e+38 -3.4e+38 -3.4e+38 -3.4e+38 -3.4e+38 -3.4e+38 -3.4e+38 -3.4e+38 -3.4e+38 -3.4e+38 -3.4e+38 3104.63500976562 3105.11206054688 3105.49096679688 3105.8193359375 3106.11083984375 3106.41723632812 3106.85913085938 3107.38793945312 3107.9375 3108.46533203125 3108.94921875 3109.484375 3110.04565429688 3110.61083984375 3111.0224609375 3111.31689453125 3111.46435546875 3111.24975585938 3110.13842773438 3108.10229492188 3105.59765625 3102.81762695312 3100.07885742188 3097.50756835938 3095.0263671875 3093.02368164062 3091.77124023438 3091.00610351562 3090.3125 3089.65795898438 3089.06665039062 3088.50170898438 3087.7958984375 3086.76708984375 3085.67846679688 3084.7578125 3083.8466796875 3082.80322265625 3081.625 3080.0693359375 3077.89233398438 3075.5810546875 3073.04931640625 3069.6806640625 3065.57446289062 3061.31103515625 -3.4e+38 -3.4e+38 -3.4e+38 -3.4e+38 -3.4e+38 -3.4e+38 -3.4e+38 -3.4e+38 -3.4e+38 -3.4e+38 -3.4e+38 -3.4e+38 -3.4e+38 -3.4e+38 -3.4e+38 -3.4e+38 -3.4e+38 -3.4e+38 -3.4e+38 -3.4e+38 -3.4e+38 -3.4e+38 -3.4e+38 -3.4e+38 -3.4e+38 -3.4e+38 -3.4e+38 -3.4e+38 -3.4e+38 -3.4e+38 -3.4e+38 -3.4e+38 -3.4e+38 -3.4e+38 -3.4e+38 -3.4e+38 -3.4e+38 -3.4e+38 -3.4e+38 -3.4e+38 -3.4e+38 -3.4e+38 -3.4e+38 -3.4e+38 -3.4e+38 -3.4e+38 -3.4e+38 -3.4e+38 -3.4e+38 -3.4e+38 -3.4e+38 -3.4e+38 -3.4e+38 -3.4e+38 -3.4e+38 -3.4e+38 -3.4e+38 -3.4e+38 -3.4e+38 -3.4e+38 -3.4e+38 -3.4e+38 -3.4e+38 -3.4e+38 -3.4e+38 -3.4e+38 -3.4e+38 -3.4e+38 -3.4e+38 -3.4e+38 -3.4e+38
-3.4e+38 -3.4e+38 -3.4e+38 -3.4e+38 -3.4e+38 -3.4e+38 -3.4e+38 -3.4e+38 -3.4e+38 -3.4e+38 -3.4e+38 -3.4e+38 -3.4e+38 -3.4e+38 -3.4e+38 -3.4e+38 -3.4e+38 -3.4e+38 -3.4e+38 -3.4e+38 -3.4e+38 -3.4e+38 -3.4e+38 -3.4e+38 -3.4e+38 -3.4e+38 -3.4e+38 -3.4e+38 -3.4e+38 -3.4e+38 -3.4e+38 -3.4e+38 -3.4e+38 -3.4e+38 -3.4e+38 -3.4e+38 -3.4e+38 -3.4e+38 -3.4e+38 -3.4e+38 -3.4e+38 -3.4e+38 -3.4e+38 -3.4e+38 -3.4e+38 -3.4e+38 -3.4e+38 -3.4e+38 -3.4e+38 -3.4e+38 -3.4e+38 -3.4e+38 -3.4e+38 -3.4e+38 -3.4e+38 -3.4e+38 -3.4e+38 -3.4e+38 -3.4e+38 -3.4e+38 -3.4e+38 -3.4e+38 -3.4e+38 -3.4e+38 -3.4e+38 -3.4e+38 -3.4e+38 -3.4e+38 -3.4e+38 -3.4e+38 -3.4e+38 -3.4e+38 -3.4e+38 -3.4e+38 -3.4e+38 -3.4e+38 -3.4e+38 -3.4e+38 -3.4e+38 -3.4e+38 -3.4e+38 -3.4e+38 -3.4e+38 -3.4e+38 -3.4e+38 -3.4e+38 -3.4e+38 -3.4e+38 -3.4e+38 -3.4e+38 -3.4e+38 -3.4e+38 -3.4e+38 -3.4e+38 -3.4e+38 -3.4e+38 -3.4e+38 -3.4e+38 -3.4e+38 -3.4e+38 -3.4e+38 -3.4e+38 -3.4e+38 -3.4e+38 -3.4e+38 3105.28149414062 3105.76049804688 3106.1953125 3106.73291015625 3107.46044921875 3108.13208007812 3108.744140625 3109.45385742188 3110.2236328125 3110.9697265625 3111.58837890625 3112.27197265625 3112.93920898438 3113.42529296875 3113.68774414062 3113.52465820312 3112.45556640625 3110.591796875 3108.24536132812 3105.57055664062 3102.92846679688 3100.45190429688 3098.44213867188 3097.37817382812 3096.75341796875 3096.16723632812 3095.4921875 3094.79443359375 3094.16528320312 3093.4541015625 3092.45483398438 3091.23022460938 3090.00610351562 3088.8046875 3087.49633789062 3086.13110351562 3084.71069335938 3082.89331054688 3080.57592773438 3078.09228515625 3075.54565429688 3072.14184570312 3067.61352539062 -3.4e+38 -3.4e+38 -3.4e+38 -3.4e+38 -3.4e+38 -3.4e+38 -3.4e+38 -3.4e+38 -3.4e+38 -3.4e+38 -3.4e+38 -3.4e+38 -3.4e+38 -3.4e+38 -3.4e+38 -3.4e+38 -3.4e+38 -3.4e+38 -3.4e+38 -3.4e+38 -3.4e+38 -3.4e+38 -3.4e+38 -3.4e+38 -3.4e+38 -3.4e+38 -3.4e+38 -3.4e+38 -3.4e+38 -3.4e+38 -3.4e+38 -3.4e+38 -3.4e+38 -3.4e+38 -3.4e+38 -3.4e+38 -3.4e+38 -3.4e+38 -3.4e+38 -3.4e+38 -3.4e+38 -3.4e+38 -3.4e+38 -3.4e+38 -3.4e+38 -3.4e+38 -3.4e+38 -3.4e+38 -3.4e+38 -3.4e+38 -3.4e+38 -3.4e+38 -3.4e+38 -3.4e+38 -3.4e+38 -3.4e+38 -3.4e+38 -3.4e+38 -3.4e+38 -3.4e+38 -3.4e+38 -3.4e+38 -3.4e+38 -3.4e+38 -3.4e+38 -3.4e+38 -3.4e+38 -3.4e+38 -3.4e+38 -3.4e+38 -3.4e+38 -3.4e+38
-3.4e+38 -3.4e+38 -3.4e+38 -3.4e+38 -3.4e+38 -3.4e+38 -3.4e+38 -3.4e+38 -3.4e+38 -3.4e+38 -3.4e+38 -3.4e+38 -3.4e+38 -3.4e+38 -3.4e+38 -3.4e+38 -3.4e+38 -3.4e+38 -3.4e+38 -3.4e+38 -3.4e+38 -3.4e+38 -3.4e+38 -3.4e+38 -3.4e+38 -3.4e+38 -3.4e+38 -3.4e+38 -3.4e+38 -3.4e+38 -3.4e+38 -3.4e+38 -3.4e+38 -3.4e+38 -3.4e+38 -3.4e+38 -3.4e+38 -3.4e+38 -3.4e+38 -3.4e+38 -3.4e+38 -3.4e+38 -3.4e+38 -3.4e+38 -3.4e+38 -3.4e+38 -3.4e+38 -3.4e+38 -3.4e+38 -3.4e+38 -3.4e+38 -3.4e+38 -3.4e+38 -3.4e+38 -3.4e+38 -3.4e+38 -3.4e+38 -3.4e+38 -3.4e+38 -3.4e+38 -3.4e+38 -3.4e+38 -3.4e+38 -3.4e+38 -3.4e+38 -3.4e+38 -3.4e+38 -3.4e+38 -3.4e+38 -3.4e+38 -3.4e+38 -3.4e+38 -3.4e+38 -3.4e+38 -3.4e+38 -3.4e+38 -3.4e+38 -3.4e+38 -3.4e+38 -3.4e+38 -3.4e+38 -3.4e+38 -3.4e+38 -3.4e+38 -3.4e+38 -3.4e+38 -3.4e+38 -3.4e+38 -3.4e+38 -3.4e+38 -3.4e+38 -3.4e+38 -3.4e+38 -3.4e+38 -3.4e+38 -3.4e+38 -3.4e+38 -3.4e+38 -3.4e+38 -3.4e+38 -3.4e+38 -3.4e+38 -3.4e+38 -3.4e+38 -3.4e+38 -3.4e+38 -3.4e+38 -3.4e+38 -3.4e+38 -3.4e+38 3108.44165039062 3109.0966796875 3110.14086914062 3111.28002929688 3112.20556640625 3113.02490234375 3113.80688476562 3114.60961914062 3115.34545898438 3115.7822265625 3115.66137695312 3114.5771484375 3112.93286132812 3110.72583007812 3108.06640625 3105.76684570312 3103.94873046875 3102.36157226562 3101.35571289062 3100.84643554688 3100.41455078125 3099.9052734375 3099.37866210938 3098.8515625 3098.2587890625 3097.40698242188 3096.40795898438 3095.35473632812 3094.17578125 3092.6376953125 3090.54028320312 3088.13208007812 3085.60375976562 3082.884765625 3080.01000976562 3077.255859375 3073.86694335938 -3.4e+38 -3.4e+38 -3.4e+38 -3.4e+38 -3.4e+38 -3.4e+38 -3.4e+38 -3.4e+38 -3.4e+38 -3.4e+38 -3.4e+38 -3.4e+38 -3.4e+38 -3.4e+38 -3.4e+38 -3.4e+38 -3.4e+38 -3.4e+38 -3.4e+38 -3.4e+38 -3.4e+38 -3.4e+38 -3.4e+38 -3.4e+38 -3.4e+38 -3.4e+38 -3.4e+38 -3.4e+38 -3.4e+38 -3.4e+38 -3.4e+38 -3.4e+38 -3.4e+38 -3.4e+38 -3.4e+38 -3.4e+38 -3.4e+38 -3.4e+38 -3.4e+38 -3.4e+38 -3.4e+38 -3.4e+38 -3.4e+38 -3.4e+38 -3.4e+38 -3.4e+38 -3.4e+38 -3.4e+38 -3.4e+38 -3.4e+38 -3.4e+38 -3.4e+38 -3.4e+38 -3.4e+38 -3.4e+38 -3.4e+38 -3.4e+38 -3.4e+38 -3.4e+38 -3.4e+38 -3.4e+38 -3.4e+38 -3.4e+38 -3.4e+38 -3.4e+38 -3.4e+38 -3.4e+38 -3.4e+38 -3.4e+38 -3.4e+38 -3.4e+38 -3.4e+38 -3.4e+38
-3.4e+38 -3.4e+38 -3.4e+38 -3.4e+38 -3.4e+38 -3.4e+38 -3.4e+38 -3.4e+38 -3.4e+38 -3.4e+38 -3.4e+38 -3.4e+38 -3.4e+38 -3.4e+38 -3.4e+38 -3.4e+38 -3.4e+38 -3.4e+38 -3.4e+38 -3.4e+38 -3.4e+38 -3.4e+38 -3.4e+38 -3.4e+38 -3.4e+38 -3.4e+38 -3.4e+38 -3.4e+38 -3.4e+38 -3.4e+38 -3.4e+38 -3.4e+38 -3.4e+38 -3.4e+38 -3.4e+38 -3.4e+38 -3.4e+38 -3.4e+38 -3.4e+38 -3.4e+38 -3.4e+38 -3.4e+38 -3.4e+38 -3.4e+38 -3.4e+38 -3.4e+38 -3.4e+38 -3.4e+38 -3.4e+38 -3.4e+38 -3.4e+38 -3.4e+38 -3.4e+38 -3.4e+38 -3.4e+38 -3.4e+38 -3.4e+38 -3.4e+38 -3.4e+38 -3.4e+38 -3.4e+38 -3.4e+38 -3.4e+38 -3.4e+38 -3.4e+38 -3.4e+38 -3.4e+38 -3.4e+38 -3.4e+38 -3.4e+38 -3.4e+38 -3.4e+38 -3.4e+38 -3.4e+38 -3.4e+38 -3.4e+38 -3.4e+38 -3.4e+38 -3.4e+38 -3.4e+38 -3.4e+38 -3.4e+38 -3.4e+38 -3.4e+38 -3.4e+38 -3.4e+38 -3.4e+38 -3.4e+38 -3.4e+38 -3.4e+38 -3.4e+38 -3.4e+38 -3.4e+38 -3.4e+38 -3.4e+38 -3.4e+38 -3.4e+38 -3.4e+38 -3.4e+38 -3.4e+38 -3.4e+38 -3.4e+38 -3.4e+38 -3.4e+38 -3.4e+38 -3.4e+38 -3.4e+38 -3.4e+38 -3.4e+38 -3.4e+38 -3.4e+38 -3.4e+38 3110.42797851562 3111.802734375 3112.95849609375 3113.99609375 3115.13427734375 3116.28198242188 3117.23974609375 3118.00170898438 3118.20678710938 3117.46215820312 3115.85229492188 3113.43212890625 3110.685546875 3108.53979492188 3107.1591796875 3106.013671875 3105.201171875 3104.62182617188 3104.1318359375 3103.67138671875 3103.21704101562 3102.736328125 3102.21142578125 3101.466796875 3100.61669921875 3099.78686523438 3098.91870117188 3097.72387695312 3095.3974609375 3091.91967773438 3088.23681640625 3084.69604492188 3081.31640625 3078.17236328125 -3.4e+38 -3.4e+38 -3.4e+38 -3.4e+38 -3.4e+38 -3.4e+38 -3.4e+38 -3.4e+38 -3.4e+38 -3.4e+38 -3.4e+38 -3.4e+38 -3.4e+38 -3.4e+38 -3.4e+38 -3.4e+38 -3.4e+38 -3.4e+38 -3.4e+38 -3.4e+38 -3.4e+38 -3.4e+38 -3.4e+38 -3.4e+38 -3.4e+38 -3.4e+38 -3.4e+38 -3.4e+38 -3.4e+38 -3.4e+38 -3.4e+38 -3.4e+38 -3.4e+38 -3.4e+38 -3.4e+38 -3.4e+38 -3.4e+38 -3.4e+38 -3.4e+38 -3.4e+38 -3.4e+38 -3.4e+38 -3.4e+38 -3.4e+38 -3.4e+38 -3.4e+38 -3.4e+38 -3.4e+38 -3.4e+38 -3.4e+38 -3.4e+38 -3.4e+38 -3.4e+38 -3.4e+38 -3.4e+38 -3.4e+38 -3.4e+38 -3.4e+38 -3.4e+38 -3.4e+38 -3.4e+38 -3.4e+38 -3.4e+38 -3.4e+38 -3.4e+38 -3.4e+38 -3.4e+38 -3.4e+38 -3.4e+38 -3.4e+38 -3.4e+38 -3.4e+38 -3.4e+38 -3.4e+38
-3.4e+38 -3.4e+38 -3.4e+38 -3.4e+38 -3.4e+38 -3.4e+38 -3.4e+38 -3.4e+38 -3.4e+38 -3.4e+38 -3.4e+38 -3.4e+38 -3.4e+38 -3.4e+38 -3.4e+38 -3.4e+38 -3.4e+38 -3.4e+38 -3.4e+38 -3.4e+38 -3.4e+38 -3.4e+38 -3.4e+38 -3.4e+38 -3.4e+38 -3.4e+38 -3.4e+38 -3.4e+38 -3.4e+38 -3.4e+38 -3.4e+38 -3.4e+38 -3.4e+38 -3.4e+38 -3.4e+38 -3.4e+38 -3.4e+38 -3.4e+38 -3.4e+38 -3.4e+38 -3.4e+38 -3.4e+38 -3.4e+38 -3.4e+38 -3.4e+38 -3.4e+38 -3.4e+38 -3.4e+38 -3.4e+38 -3.4e+38 -3.4e+38 -3.4e+38 -3.4e+38 -3.4e+38 -3.4e+38 -3.4e+38 -3.4e+38 -3.4e+38 -3.4e+38 -3.4e+38 -3.4e+38 -3.4e+38 -3.4e+38 -3.4e+38 -3.4e+38 -3.4e+38 -3.4e+38 -3.4e+38 -3.4e+38 -3.4e+38 -3.4e+38 -3.4e+38 -3.4e+38 -3.4e+38 -3.4e+38 -3.4e+38 -3.4e+38 -3.4e+38 -3.4e+38 -3.4e+38 -3.4e+38 -3.4e+38 -3.4e+38 -3.4e+38 -3.4e+38 -3.4e+38 -3.4e+38 -3.4e+38 -3.4e+38 -3.4e+38 -3.4e+38 -3.4e+38 -3.4e+38 -3.4e+38 -3.4e+38 -3.4e+38 -3.4e+38 -3.4e+38 -3.4e+38 -3.4e+38 -3.4e+38 -3.4e+38 -3.4e+38 -3.4e+38 -3.4e+38 -3.4e+38 -3.4e+38 -3.4e+38 -3.4e+38 -3.4e+38 -3.4e+38 -3.4e+38 -3.4e+38 -3.4e+38 -3.4e+38 3114.33447265625 3115.88500976562 3117.55590820312 3118.96020507812 3120.20703125 3120.71362304688 3120.4091796875 3119.49951171875 3117.34106445312 3114.38940429688 3111.88305664062 3110.24829101562 3109.27294921875 3108.69580078125 3108.17602539062 3107.67016601562 3107.14038085938 3106.64111328125 3106.19165039062 3105.70825195312 3104.9619140625 3104.00561523438 3103.00073242188 3101.99926757812 3100.68359375 3098.41772460938 3094.69946289062 3090.17944335938 3085.9326171875 3082.11572265625 -3.4e+38 -3.4e+38 -3.4e+38 -3.4e+38 -3.4e+38 -3.4e+38 -3.4e+38 -3.4e+38 -3.4e+38 -3.4e+38 -3.4e+38 -3.4e+38 -3.4e+38 -3.4e+38 -3.4e+38 -3.4e+38 -3.4e+38 -3.4e+38 -3.4e+38 -3.4e+38 -3.4e+38 -3.4e+38 -3.4e+38 -3.4e+38 -3.4e+38 -3.4e+38 -3.4e+38 -3.4e+38 -3.4e+38 -3.4e+38 -3.4e+38 -3.4e+38 -3.4e+38 -3.4e+38 -3.4e+38 -3.4e+38 -3.4e+38 -3.4e+38 -3.4e+38 -3.4e+38 -3.4e+38 -3.4e+38 -3.4e+38 -3.4e+38 -3.4e+38 -3.4e+38 -3.4e+38 -3.4e+38 -3.4e+38 -3.4e+38 -3.4e+38 -3.4e+38 -3.4e+38 -3.4e+38 -3.4e+38 -3.4e+38 -3.4e+38 -3.4e+38 -3.4e+38 -3.4e+38 -3.4e+38 -3.4e+38 -3.4e+38 -3.4e+38 -3.4e+38 -3.4e+38 -3.4e+38 -3.4e+38 -3.4e+38 -3.4e+38 -3.4e+38 -3.4e+38 -3.4e+38 -3.4e+38 -3.4e+38
-3.4e+38 -3.4e+38 -3.4e+38 -3.4e+38 -3.4e+38 -3.4e+38 -3.4e+38 -3.4e+38 -3.4e+38 -3.4e+38 -3.4e+38 -3.4e+38 -3.4e+38 -3.4e+38 -3.4e+38 -3.4e+38 -3.4e+38 -3.4e+38 -3.4e+38 -3.4e+38 -3.4e+38 -3.4e+38 -3.4e+38 -3.4e+38 -3.4e+38 -3.4e+38 -3.4e+38 -3.4e+38 -3.4e+38 -3.4e+38 -3.4e+38 -3.4e+38 -3.4e+38 -3.4e+38 -3.4e+38 -3.4e+38 -3.4e+38 -3.4e+38 -3.4e+38 -3.4e+38 -3.4e+38 -3.4e+38 -3.4e+38 -3.4e+38 -3.4e+38 -3.4e+38 -3.4e+38 -3.4e+38 -3.4e+38 -3.4e+38 -3.4e+38 -3.4e+38 -3.4e+38 -3.4e+38 -3.4e+38 -3.4e+38 -3.4e+38 -3.4e+38 -3.4e+38 -3.4e+38 -3.4e+38 -3.4e+38 -3.4e+38 -3.4e+38 -3.4e+38 -3.4e+38 -3.4e+38 -3.4e+38 -3.4e+38 -3.4e+38 -3.4e+38 -3.4e+38 -3.4e+38 -3.4e+38 -3.4e+38 -3.4e+38 -3.4e+38 -3.4e+38 -3.4e+38 -3.4e+38 -3.4e+38 -3.4e+38 -3.4e+38 -3.4e+38 -3.4e+38 -3.4e+38 -3.4e+38 -3.4e+38 -3.4e+38 -3.4e+38 -3.4e+38 -3.4e+38 -3.4e+38 -3.4e+38 -3.4e+38 -3.4e+38 -3.4e+38 -3.4e+38 -3.4e+38 -3.4e+38 -3.4e+38 -3.4e+38 -3.4e+38 -3.4e+38 -3.4e+38 -3.4e+38 -3.4e+38 -3.4e+38 -3.4e+38 -3.4e+38 -3.4e+38 -3.4e+38 -3.4e+38 -3.4e+38 -3.4e+38 -3.4e+38 -3.4e+38 3118.36108398438 3119.99975585938 3121.57836914062 3122.8212890625 3123.1884765625 3122.89526367188 3121.43579101562 3118.88232421875 3116.28051757812 3114.37158203125 3113.0927734375 3112.30078125 3111.66137695312 3111.09326171875 3110.478515625 3109.97241210938 3109.56909179688 3109.14428710938 3108.23217773438 3106.83129882812 3105.4833984375 3103.97924804688 3102.0322265625 3099.55444335938 3095.94775390625 3090.9921875 -3.4e+38 -3.4e+38 -3.4e+38 -3.4e+38 -3.4e+38 -3.4e+38 -3.4e+38 -3.4e+38 -3.4e+38 -3.4e+38 -3.4e+38 -3.4e+38 -3.4e+38 -3.4e+38 -3.4e+38 -3.4e+38 -3.4e+38 -3.4e+38 -3.4e+38 -3.4e+38 -3.4e+38 -3.4e+38 -3.4e+38 -3.4e+38 -3.4e+38 -3.4e+38 -3.4e+38 -3.4e+38 -3.4e+38 -3.4e+38 -3.4e+38 -3.4e+38 -3.4e+38 -3.4e+38 -3.4e+38 -3.4e+38 -3.4e+38 -3.4e+38 -3.4e+38 -3.4e+38 -3.4e+38 -3.4e+38 -3.4e+38 -3.4e+38 -3.4e+38 -3.4e+38 -3.4e+38 -3.4e+38 -3.4e+38 -3.4e+38 -3.4e+38 -3.4e+38 -3.4e+38 -3.4e+38 -3.4e+38 -3.4e+38 -3.4e+38 -3.4e+38 -3.4e+38 -3.4e+38 -3.4e+38 -3.4e+38 -3.4e+38 -3.4e+38 -3.4e+38 -3.4e+38 -3.4e+38 -3.4e+38 -3.4e+38 -3.4e+38 -3.4e+38 -3.4e+38 -3.4e+38 -3.4e+38 -3.4e+38 -3.4e+38 -3.4e+38
