NCOLS 233
NROWS 28
XLLCORNER 424311.519902
YLLCORNER 4412587.22541
CELLSIZE 10 
NODATA_value -3.4e+38 
3344.59423828125 3342.10302734375 3340.25073242188 3338.42358398438 3336.4228515625 3334.537109375 3333.00366210938 3331.26953125 3329.22680664062 3327.1630859375 3325.18383789062 3322.98486328125 3320.58911132812 3317.98828125 3315.15600585938 3311.71923828125 3308.16162109375 3305.03955078125 3302.13940429688 3298.82006835938 3295.33081054688 3292.123046875 3288.638671875 3284.51733398438 3280.91284179688 3278.43115234375 3275.7841796875 3272.33813476562 3269.48828125 3268.0341796875 3267.03588867188 3265.59814453125 3263.50146484375 3261.43994140625 3259.40209960938 3257.36938476562 3255.4794921875 3253.68115234375 3251.50659179688 3249.47143554688 3247.93530273438 3246.37158203125 3244.04272460938 3241 3237.998046875 3234.99389648438 3231.83862304688 3228.705078125 3225.7001953125 3222.29370117188 3218.37573242188 3214.24267578125 3209.57958984375 3202.84448242188 3196.685546875 3193.982421875 3192.50170898438 3191.35546875 3190.91845703125 3190.57348632812 3189.69702148438 3188.173828125 3186.58374023438 3185.25366210938 3183.978515625 3182.88793945312 3182.1044921875 3181.79907226562 3181.96728515625 3182.65771484375 3183.80029296875 3185.2646484375 3187.15454101562 3189.27734375 3191.18432617188 3192.82983398438 3194.48168945312 3196.09716796875 3197.611328125 3199.20971679688 3201.04443359375 3203.44653320312 3208.78295898438 3214.01586914062 3220.24487304688 3226.71850585938 3231.81225585938 3236.40673828125 3242.01440429688 3249.4765625 3257.16870117188 3264.65405273438 3272.2333984375 3279.18505859375 3285.08251953125 3290.99438476562 3295.16528320312 3297.52758789062 3300.02978515625 3303.23583984375 3306.75903320312 3310.470703125 3314.44970703125 3319.0166015625 3323.77368164062 3328.03295898438 3332.00219726562 3335.71997070312 3339.20483398438 3342.00854492188 3344.42236328125 3346.5263671875 3348.28295898438 3349.81323242188 3351.24780273438 3352.42358398438 3353.56884765625 3354.70385742188 3356.03491210938 3357.81982421875 3359.73266601562 3361.52416992188 3363.17944335938 3364.48193359375 3365.72485351562 3367.35815429688 3369.5400390625 3372.02124023438 3374.38305664062 3376.45703125 3378.32788085938 3380.46923828125 3383.07983398438 3386.2060546875 3388.732421875 3390.49609375 3392.4677734375 3395.7265625 3399.18383789062 3401.30053710938 3403.34375 3406.37231445312 3409.49267578125 3411.6611328125 3413.71630859375 3416.4697265625 3419.85791015625 3422.97924804688 3426.080078125 3428.6875 3430.4921875 3432.23461914062 3434.27612304688 3436.36328125 3438.57153320312 3441.13793945312 3444.79565429688 3448.78588867188 3452.76538085938 3457.44799804688 3462.7197265625 3466.5478515625 3468.97705078125 3471.15600585938 3473.27099609375 3475.17749023438 3476.49633789062 3477.4755859375 3478.23681640625 -3.4e+38 -3.4e+38 -3.4e+38 -3.4e+38 -3.4e+38 -3.4e+38 -3.4e+38 -3.4e+38 -3.4e+38 -3.4e+38 -3.4e+38 -3.4e+38 -3.4e+38 -3.4e+38 -3.4e+38 -3.4e+38 -3.4e+38 -3.4e+38 -3.4e+38 -3.4e+38 -3.4e+38 -3.4e+38 -3.4e+38 -3.4e+38 -3.4e+38 -3.4e+38 -3.4e+38 -3.4e+38 -3.4e+38 -3.4e+38 -3.4e+38 -3.4e+38 -3.4e+38 -3.4e+38 -3.4e+38 -3.4e+38 -3.4e+38 -3.4e+38 -3.4e+38 -3.4e+38 -3.4e+38 -3.4e+38 -3.4e+38 -3.4e+38 -3.4e+38 -3.4e+38 -3.4e+38 -3.4e+38 -3.4e+38 -3.4e+38 -3.4e+38 -3.4e+38 -3.4e+38 -3.4e+38 -3.4e+38 -3.4e+38 -3.4e+38 -3.4e+38 -3.4e+38 -3.4e+38 -3.4e+38 -3.4e+38 -3.4e+38 -3.4e+38
3347.74438476562 3345.10205078125 3343.15454101562 3341.30908203125 3339.3056640625 3337.37719726562 3335.6923828125 3333.76098632812 3331.5498046875 3329.34350585938 3327.20825195312 3324.77734375 3322.18627929688 3319.64721679688 3316.9365234375 3313.36254882812 3309.55029296875 3306.26489257812 3303.298828125 3299.9013671875 3296.3037109375 3293.08618164062 3289.6787109375 3285.671875 3282.02758789062 3279.72241210938 3277.75146484375 3275.14501953125 3272.44262695312 3270.80078125 3269.68627929688 3268.4853515625 3266.88916015625 3265.10107421875 3263.10913085938 3261.11840820312 3259.45336914062 3257.98876953125 3256.2734375 3254.23071289062 3252.22827148438 3250.34448242188 3247.95458984375 3245.0439453125 3242.1708984375 3239.037109375 3235.76245117188 3232.60131835938 3229.48681640625 3225.99926757812 3222.24072265625 3218.06127929688 3213.15649414062 3206.65869140625 3199.69604492188 3195.6171875 3193.86572265625 3192.91455078125 3192.99926757812 3192.95971679688 3192.16625976562 3190.59228515625 3188.76513671875 3187.1484375 3185.59790039062 3184.14770507812 3183.08349609375 3182.52416992188 3182.51049804688 3182.94775390625 3183.970703125 3185.45043945312 3187.41381835938 3189.63256835938 3191.53735351562 3193.15356445312 3194.82543945312 3196.58129882812 3198.51611328125 3200.81372070312 3200.80615234375 3200.22314453125 3205.63940429688 3211.265625 3217.28442382812 3223.30297851562 3228.61474609375 3233.62841796875 3238.63647460938 3244.6689453125 3251.95971679688 3259.90869140625 3267.4501953125 3274.15551757812 3279.96459960938 3286.0400390625 3290.75219726562 3293.21435546875 3295.7998046875 3299.75390625 3304.23974609375 3308.39233398438 3312.587890625 3317.18798828125 3321.69506835938 3325.87524414062 3330.00610351562 3333.63671875 3336.8935546875 3339.63916015625 3342.18896484375 3344.40649414062 3346.09057617188 3347.63549804688 3349.18627929688 3350.47705078125 3351.63623046875 3352.6474609375 3353.84252929688 3355.62524414062 3357.66259765625 3359.79296875 3361.89111328125 3363.3828125 3364.53271484375 3365.78100585938 3367.462890625 3369.90600585938 3372.73168945312 3375.24047851562 3376.912109375 3378.63037109375 3381.0966796875 3384.39306640625 3387.20654296875 3389.0302734375 3391.02416992188 3394.2568359375 3397.96508789062 3400.76098632812 3403.1630859375 3405.88403320312 3408.5771484375 3410.84350585938 3413.2412109375 3416.02783203125 3419.01416015625 3421.97924804688 3425.15551757812 3427.8994140625 3429.8779296875 3431.57666015625 3433.794921875 3436.2666015625 3438.52026367188 3441.2275390625 3445.03442382812 3449.083984375 3453.1728515625 3458.2900390625 3463.72290039062 3467.30615234375 3469.75366210938 3472.14819335938 3474.5068359375 3476.4228515625 3477.48364257812 3478.35815429688 3479.134765625 -3.4e+38 -3.4e+38 -3.4e+38 -3.4e+38 -3.4e+38 -3.4e+38 -3.4e+38 -3.4e+38 -3.4e+38 -3.4e+38 -3.4e+38 -3.4e+38 -3.4e+38 -3.4e+38 -3.4e+38 -3.4e+38 -3.4e+38 -3.4e+38 -3.4e+38 -3.4e+38 -3.4e+38 -3.4e+38 -3.4e+38 -3.4e+38 -3.4e+38 -3.4e+38 -3.4e+38 -3.4e+38 -3.4e+38 -3.4e+38 -3.4e+38 -3.4e+38 -3.4e+38 -3.4e+38 -3.4e+38 -3.4e+38 -3.4e+38 -3.4e+38 -3.4e+38 -3.4e+38 -3.4e+38 -3.4e+38 -3.4e+38 -3.4e+38 -3.4e+38 -3.4e+38 -3.4e+38 -3.4e+38 -3.4e+38 -3.4e+38 -3.4e+38 -3.4e+38 -3.4e+38 -3.4e+38 -3.4e+38 -3.4e+38 -3.4e+38 -3.4e+38 -3.4e+38 -3.4e+38 -3.4e+38 -3.4e+38 -3.4e+38 -3.4e+38
3351.03833007812 3348.35327148438 3346.23706054688 3344.2373046875 3342.16943359375 3340.22827148438 3338.39135742188 3336.29174804688 3333.92211914062 3331.4921875 3329.1796875 3326.61547851562 3323.86987304688 3321.21044921875 3318.47241210938 3314.91943359375 3311.03369140625 3307.61889648438 3304.48681640625 3300.97875976562 3297.32006835938 3294.06762695312 3290.89697265625 3287.34155273438 3283.97827148438 3281.9990234375 3280.59399414062 3278.87622070312 3276.82739257812 3275.05883789062 3273.46606445312 3271.935546875 3270.31616210938 3268.74926757812 3266.9951171875 3265.11401367188 3263.412109375 3261.81298828125 3260.03198242188 3258.16186523438 3256.38403320312 3254.447265625 3251.765625 3248.75805664062 3246.01196289062 3242.86669921875 3239.22290039062 3235.89526367188 3233.0234375 3229.61596679688 3225.53491210938 3221.09765625 3216.21875 3210.03100585938 3203.05981445312 3197.64233398438 3194.9970703125 3194.50268554688 3195.2705078125 3195.41040039062 3194.69750976562 3193.21606445312 3191.3759765625 3189.51416015625 3187.64184570312 3185.84765625 3184.35107421875 3183.32421875 3182.94897460938 3183.34765625 3184.21459960938 3185.65844726562 3187.66577148438 3189.92919921875 3191.9091796875 3193.5888671875 3195.33349609375 3197.2177734375 3198.88525390625 3201.08813476562 3201.39892578125 3200.322265625 3203.04370117188 3208.40551757812 3214.38061523438 3220.08666992188 3225.26928710938 3230.66259765625 3235.82299804688 3240.91918945312 3246.90258789062 3254.87646484375 3262.86108398438 3269.68701171875 3275.27807617188 3280.84814453125 3285.46313476562 3288.63012695312 3292.0048828125 3296.77758789062 3302.15893554688 3306.49365234375 3310.62963867188 3315.04150390625 3319.16796875 3323.12573242188 3327.42456054688 3331.28100585938 3334.40014648438 3337.07373046875 3339.8076171875 3342.33837890625 3344.12939453125 3345.505859375 3347.119140625 3348.82568359375 3350.24487304688 3351.4326171875 3352.78491210938 3354.5322265625 3356.46264648438 3358.64770507812 3360.97900390625 3362.62475585938 3363.7578125 3364.96655273438 3366.56884765625 3368.82568359375 3371.5205078125 3374.28442382812 3376.39428710938 3378.43017578125 3380.64868164062 3383.44604492188 3386.2685546875 3388.55151367188 3390.916015625 3393.98779296875 3397.54223632812 3400.748046875 3403.404296875 3405.79296875 3408.16943359375 3410.37475585938 3412.66357421875 3415.31811523438 3418.11743164062 3420.94311523438 3423.96875 3426.67309570312 3428.88842773438 3430.79150390625 3433.28881835938 3436.14916992188 3438.64282226562 3441.47094726562 3445.38134765625 3449.62573242188 3453.94799804688 3459.41748046875 3464.77001953125 3468.0625 3470.591796875 3473.14306640625 3475.564453125 3477.2998046875 3478.34130859375 3479.26098632812 3480.04125976562 -3.4e+38 -3.4e+38 -3.4e+38 -3.4e+38 -3.4e+38 -3.4e+38 -3.4e+38 -3.4e+38 -3.4e+38 -3.4e+38 -3.4e+38 -3.4e+38 -3.4e+38 -3.4e+38 -3.4e+38 -3.4e+38 -3.4e+38 -3.4e+38 -3.4e+38 -3.4e+38 -3.4e+38 -3.4e+38 -3.4e+38 -3.4e+38 -3.4e+38 -3.4e+38 -3.4e+38 -3.4e+38 -3.4e+38 -3.4e+38 -3.4e+38 -3.4e+38 -3.4e+38 -3.4e+38 -3.4e+38 -3.4e+38 -3.4e+38 -3.4e+38 -3.4e+38 -3.4e+38 -3.4e+38 -3.4e+38 -3.4e+38 -3.4e+38 -3.4e+38 -3.4e+38 -3.4e+38 -3.4e+38 -3.4e+38 -3.4e+38 -3.4e+38 -3.4e+38 -3.4e+38 -3.4e+38 -3.4e+38 -3.4e+38 -3.4e+38 -3.4e+38 -3.4e+38 -3.4e+38 -3.4e+38 -3.4e+38 -3.4e+38 -3.4e+38
3354.08154296875 3351.53759765625 3349.33129882812 3347.20532226562 3345.05737304688 3343.0595703125 3341.22802734375 3338.98217773438 3336.3046875 3333.62890625 3331.13720703125 3328.46630859375 3325.6201171875 3322.71630859375 3319.86694335938 3316.40576171875 3312.5205078125 3309.03002929688 3305.7802734375 3302.171875 3298.45141601562 3295.20922851562 3292.2177734375 3289.396484375 3286.9658203125 3285.16674804688 3283.76733398438 3282.41357421875 3281.06274414062 3279.66772460938 3277.92602539062 3276.01879882812 3274.19580078125 3272.552734375 3270.81689453125 3269.07250976562 3267.31494140625 3265.396484375 3263.37280273438 3261.39868164062 3259.77319335938 3258.05151367188 3255.6376953125 3252.48852539062 3249.34716796875 3245.95971679688 3242.24340820312 3238.89770507812 3235.99291992188 3232.70043945312 3228.49536132812 3223.89916992188 3219.06201171875 3212.73120117188 3205.95678710938 3200.31860351562 3196.5927734375 3196.05932617188 3197.49780273438 3197.79296875 3197.158203125 3195.81201171875 3194.0888671875 3192.17529296875 3190.08203125 3187.98681640625 3186.16430664062 3184.67163085938 3183.59643554688 3183.53271484375 3184.40209960938 3185.8203125 3187.86669921875 3190.20458984375 3192.35986328125 3194.15307617188 3195.98461914062 3197.70971679688 3198.826171875 3200.56494140625 3201.82788085938 3201.7509765625 3202.306640625 3206.44946289062 3212.20361328125 3217.51684570312 3222.12377929688 3227.78247070312 3233.259765625 3238.14184570312 3242.99755859375 3250.08251953125 3258.76904296875 3265.79565429688 3271.11254882812 3276.38134765625 3281.1240234375 3285.10278320312 3289.50537109375 3294.55419921875 3300.02026367188 3304.58129882812 3308.68798828125 3312.62548828125 3316.32470703125 3319.98461914062 3324.30249023438 3328.51977539062 3331.73193359375 3334.35278320312 3337.23803710938 3339.99633789062 3341.98754882812 3343.40356445312 3345.12060546875 3347.4658203125 3349.47436523438 3350.89770507812 3352.56689453125 3354.42895507812 3356.19580078125 3358.169921875 3360.22119140625 3362.02514648438 3363.5009765625 3364.96044921875 3366.79443359375 3368.90063476562 3371.17822265625 3373.80981445312 3376.353515625 3378.7431640625 3380.86108398438 3383.298828125 3385.9951171875 3388.52368164062 3391.06762695312 3394.10571289062 3397.51318359375 3400.60083007812 3403.33837890625 3405.69921875 3407.81225585938 3409.82373046875 3412.0703125 3414.4697265625 3417.10229492188 3419.77319335938 3422.61499023438 3425.31958007812 3427.689453125 3429.814453125 3432.67211914062 3435.99951171875 3438.81884765625 3441.84252929688 3445.86596679688 3450.36743164062 3455.04028320312 3460.591796875 3465.61352539062 3468.90307617188 3471.52319335938 3474.11669921875 3476.52319335938 3478.08837890625 3479.17626953125 3480.14208984375 3480.90478515625 3481.54296875 -3.4e+38 -3.4e+38 -3.4e+38 -3.4e+38 -3.4e+38 -3.4e+38 -3.4e+38 -3.4e+38 -3.4e+38 -3.4e+38 -3.4e+38 -3.4e+38 -3.4e+38 -3.4e+38 -3.4e+38 -3.4e+38 -3.4e+38 -3.4e+38 -3.4e+38 -3.4e+38 -3.4e+38 -3.4e+38 -3.4e+38 -3.4e+38 -3.4e+38 -3.4e+38 -3.4e+38 -3.4e+38 -3.4e+38 -3.4e+38 -3.4e+38 -3.4e+38 -3.4e+38 -3.4e+38 -3.4e+38 -3.4e+38 -3.4e+38 -3.4e+38 -3.4e+38 -3.4e+38 -3.4e+38 -3.4e+38 -3.4e+38 -3.4e+38 -3.4e+38 -3.4e+38 -3.4e+38 -3.4e+38 -3.4e+38 -3.4e+38 -3.4e+38 -3.4e+38 -3.4e+38 -3.4e+38 -3.4e+38 -3.4e+38 -3.4e+38 -3.4e+38 -3.4e+38 -3.4e+38 -3.4e+38 -3.4e+38 -3.4e+38
3356.81103515625 3354.48193359375 3352.2890625 3350.07861328125 3347.888671875 3345.81298828125 3343.923828125 3341.59423828125 3338.78198242188 3335.93579101562 3333.24438476562 3330.38330078125 3327.38354492188 3324.28588867188 3321.24536132812 3317.72314453125 3313.90185546875 3310.4609375 3307.08227539062 3303.43237304688 3299.8359375 3296.64111328125 3293.611328125 3291.30786132812 3289.85083007812 3288.52294921875 3287.189453125 3285.75439453125 3284.51025390625 3283.28051757812 3281.8447265625 3280.24658203125 3278.392578125 3276.49536132812 3274.47485351562 3272.47045898438 3270.6083984375 3268.64453125 3266.47875976562 3264.38110351562 3262.57104492188 3260.763671875 3258.53247070312 3255.73388671875 3252.47241210938 3248.64575195312 3244.78930664062 3241.33666992188 3238.31640625 3235.13232421875 3231.26611328125 3226.53955078125 3221.40942382812 3214.9072265625 3208.33203125 3203.55200195312 3200.18237304688 3198.99658203125 3199.81201171875 3200.06860351562 3199.52294921875 3198.29858398438 3196.6640625 3194.8056640625 3192.72534179688 3190.48950195312 3188.4306640625 3186.5966796875 3184.89794921875 3184.07397460938 3184.65258789062 3186.00927734375 3188.13354492188 3190.6552734375 3192.79614257812 3194.66162109375 3196.5224609375 3197.8740234375 3198.66552734375 3200.02905273438 3201.6650390625 3202.904296875 3204.36865234375 3207.30444335938 3211.6884765625 3216.15600585938 3220.1787109375 3225.87719726562 3231.66381835938 3236.79077148438 3241.22534179688 3247.7041015625 3256.71948242188 3263.04223632812 3267.85131835938 3273.16381835938 3278.74877929688 3283.267578125 3287.87719726562 3292.91162109375 3298.01782226562 3302.55859375 3306.6572265625 3310.27099609375 3313.66821289062 3316.93237304688 3320.943359375 3325.26318359375 3328.76147460938 3331.48828125 3334.45654296875 3337.4765625 3339.8271484375 3341.62670898438 3343.85522460938 3346.68798828125 3349.18603515625 3351.056640625 3353.01733398438 3354.96166992188 3356.50952148438 3358.17846679688 3359.95849609375 3361.70776367188 3363.40502929688 3365.26342773438 3367.27001953125 3369.27221679688 3371.37622070312 3373.92065429688 3376.58642578125 3379.0400390625 3381.15405273438 3383.55517578125 3386.23120117188 3388.73754882812 3391.27001953125 3394.19189453125 3397.38012695312 3400.40551757812 3403.087890625 3405.427734375 3407.3984375 3409.21997070312 3411.37426757812 3413.69897460938 3416.12622070312 3418.60864257812 3421.30126953125 3423.96240234375 3426.26904296875 3428.61206054688 3432.04931640625 3435.85180664062 3439.00390625 3442.24438476562 3446.41430664062 3451.1533203125 3456.05688476562 3461.49951171875 3466.25390625 3469.64208984375 3472.35131835938 3474.97314453125 3477.23706054688 3478.796875 3479.9775390625 3481.01586914062 3481.85766601562 3482.52709960938 -3.4e+38 -3.4e+38 -3.4e+38 -3.4e+38 -3.4e+38 -3.4e+38 -3.4e+38 -3.4e+38 -3.4e+38 -3.4e+38 -3.4e+38 -3.4e+38 -3.4e+38 -3.4e+38 -3.4e+38 -3.4e+38 -3.4e+38 -3.4e+38 -3.4e+38 -3.4e+38 -3.4e+38 -3.4e+38 -3.4e+38 -3.4e+38 -3.4e+38 -3.4e+38 -3.4e+38 -3.4e+38 -3.4e+38 -3.4e+38 -3.4e+38 -3.4e+38 -3.4e+38 -3.4e+38 -3.4e+38 -3.4e+38 -3.4e+38 -3.4e+38 -3.4e+38 -3.4e+38 -3.4e+38 -3.4e+38 -3.4e+38 -3.4e+38 -3.4e+38 -3.4e+38 -3.4e+38 -3.4e+38 -3.4e+38 -3.4e+38 -3.4e+38 -3.4e+38 -3.4e+38 -3.4e+38 -3.4e+38 -3.4e+38 -3.4e+38 -3.4e+38 -3.4e+38 -3.4e+38 -3.4e+38 -3.4e+38 -3.4e+38
3359.3544921875 3357.1416015625 3355.06567382812 3352.8525390625 3350.5654296875 3348.35009765625 3346.28686523438 3343.9345703125 3341.25244140625 3338.3349609375 3335.375 3332.25732421875 3329.06640625 3325.76611328125 3322.4599609375 3318.81201171875 3315.09423828125 3311.72192382812 3308.31079101562 3304.76977539062 3301.6015625 3298.673828125 3295.74169921875 3293.82177734375 3292.76831054688 3291.83251953125 3290.603515625 3289.09936523438 3287.67797851562 3286.29663085938 3284.82641601562 3283.384765625 3281.84912109375 3280.18188476562 3277.99096679688 3275.662109375 3273.5908203125 3271.55200195312 3269.24291992188 3266.92236328125 3265.005859375 3262.99169921875 3260.72338867188 3258.28125 3255.25415039062 3251.14453125 3246.810546875 3243.08813476562 3240.09521484375 3236.89331054688 3233.35229492188 3228.76611328125 3223.2861328125 3216.76440429688 3210.30322265625 3206.34912109375 3204.15747070312 3202.8291015625 3202.4560546875 3202.64208984375 3202.255859375 3200.99682617188 3199.31103515625 3197.486328125 3195.40673828125 3193.18994140625 3191 3188.96069335938 3186.86254882812 3185.2666015625 3185.16259765625 3186.43676757812 3188.78125 3191.54418945312 3193.50537109375 3195.24438476562 3196.86767578125 3197.79565429688 3198.45458984375 3199.63793945312 3201.73266601562 3204.33618164062 3207.11743164062 3209.60815429688 3212.46508789062 3216.11889648438 3220.00390625 3225.62744140625 3231.68725585938 3236.916015625 3241.76440429688 3248.712890625 3257.05004882812 3262.1416015625 3266.71362304688 3272.109375 3277.69702148438 3282.10961914062 3286.36889648438 3291.30078125 3296.17602539062 3300.37768554688 3304.3056640625 3307.87573242188 3311.1669921875 3314.24267578125 3317.82543945312 3321.8984375 3325.66064453125 3328.69165039062 3331.77954101562 3335.34765625 3338.46801757812 3340.9072265625 3343.62036132812 3346.37377929688 3348.96411132812 3351.43725585938 3353.740234375 3355.56567382812 3356.94458007812 3358.43139648438 3360.13623046875 3361.92651367188 3363.677734375 3365.69750976562 3367.77661132812 3369.6513671875 3371.62377929688 3374.2314453125 3376.93530273438 3379.33544921875 3381.39477539062 3383.80126953125 3386.48071289062 3388.94750976562 3391.46313476562 3394.24951171875 3397.27001953125 3400.283203125 3402.89599609375 3405.10205078125 3406.90478515625 3408.58911132812 3410.564453125 3412.77514648438 3415.02416992188 3417.29370117188 3420.04150390625 3422.86181640625 3425.36889648438 3427.9775390625 3431.65209960938 3435.7021484375 3439.14672851562 3442.64331054688 3447.09765625 3452.00317382812 3456.97021484375 3462.22045898438 3466.81103515625 3470.33935546875 3473.2109375 3475.8154296875 3477.92016601562 3479.50952148438 3480.7919921875 3481.91015625 3482.82397460938 3483.52734375 -3.4e+38 -3.4e+38 -3.4e+38 -3.4e+38 -3.4e+38 -3.4e+38 -3.4e+38 -3.4e+38 -3.4e+38 -3.4e+38 -3.4e+38 -3.4e+38 -3.4e+38 -3.4e+38 -3.4e+38 -3.4e+38 -3.4e+38 -3.4e+38 -3.4e+38 -3.4e+38 -3.4e+38 -3.4e+38 -3.4e+38 -3.4e+38 -3.4e+38 -3.4e+38 -3.4e+38 -3.4e+38 -3.4e+38 -3.4e+38 -3.4e+38 -3.4e+38 -3.4e+38 -3.4e+38 -3.4e+38 -3.4e+38 -3.4e+38 -3.4e+38 -3.4e+38 -3.4e+38 -3.4e+38 -3.4e+38 -3.4e+38 -3.4e+38 -3.4e+38 -3.4e+38 -3.4e+38 -3.4e+38 -3.4e+38 -3.4e+38 -3.4e+38 -3.4e+38 -3.4e+38 -3.4e+38 -3.4e+38 -3.4e+38 -3.4e+38 -3.4e+38 -3.4e+38 -3.4e+38 -3.4e+38 -3.4e+38 -3.4e+38
3361.91772460938 3359.66455078125 3357.61181640625 3355.44604492188 3353.11767578125 3350.75219726562 3348.48413085938 3346.0048828125 3343.38525390625 3340.4912109375 3337.34643554688 3333.81787109375 3330.3251953125 3327.0244140625 3323.65649414062 3319.876953125 3316.2158203125 3312.966796875 3309.68017578125 3306.2373046875 3303.369140625 3301.11791992188 3298.921875 3297.0966796875 3295.9052734375 3294.9931640625 3293.82641601562 3292.32055664062 3290.66333007812 3289.1083984375 3287.44506835938 3285.8310546875 3284.4169921875 3282.943359375 3281.12133789062 3278.87133789062 3276.5419921875 3274.22143554688 3271.72778320312 3269.29345703125 3267.23779296875 3265.09301757812 3262.6416015625 3260.05517578125 3257.31689453125 3253.38232421875 3248.67065429688 3244.6171875 3241.390625 3238.05932617188 3234.39428710938 3230.0302734375 3224.7392578125 3218.66064453125 3213.02294921875 3209.35131835938 3207.06274414062 3205.48168945312 3205.11938476562 3205.583984375 3205.46752929688 3204.3232421875 3202.51391601562 3200.40844726562 3198.177734375 3195.89916992188 3193.66088867188 3191.51293945312 3189.29174804688 3187.53588867188 3186.90209960938 3187.9365234375 3190.50219726562 3192.9609375 3194.79541015625 3196.25073242188 3197.12133789062 3197.62817382812 3198.18920898438 3199.25708007812 3201.8125 3205.28125 3208.29833984375 3210.7353515625 3213.32495117188 3216.70166015625 3220.64501953125 3226.32250976562 3232.42626953125 3237.5703125 3243.00268554688 3250.15600585938 3257.2587890625 3261.88696289062 3266.62817382812 3271.73217773438 3276.33129882812 3280.5517578125 3284.861328125 3289.69775390625 3294.38818359375 3298.0947265625 3301.6826171875 3305.30053710938 3308.66064453125 3311.783203125 3315.244140625 3318.9921875 3322.95092773438 3326.54296875 3330.07836914062 3334.10424804688 3337.88134765625 3340.96948242188 3343.80810546875 3346.24291992188 3348.72314453125 3351.47607421875 3353.99169921875 3355.84204101562 3357.189453125 3358.57348632812 3360.24877929688 3362.24365234375 3364.15698242188 3366.19775390625 3368.22143554688 3370.06567382812 3371.95434570312 3374.4345703125 3377.00317382812 3379.35620117188 3381.46752929688 3383.931640625 3386.6767578125 3389.19311523438 3391.638671875 3394.22216796875 3397.01733398438 3399.845703125 3402.3603515625 3404.5341796875 3406.22265625 3407.73852539062 3409.61376953125 3411.7265625 3413.791015625 3415.90454101562 3418.76904296875 3422.04418945312 3424.95849609375 3427.86474609375 3431.5830078125 3435.66577148438 3439.3779296875 3443.15405273438 3447.83178710938 3452.87158203125 3457.8603515625 3462.89501953125 3467.37963867188 3471.0546875 3474.08959960938 3476.703125 3478.65893554688 3480.2841796875 3481.599609375 3482.79614257812 3483.78369140625 3484.46459960938 -3.4e+38 -3.4e+38 -3.4e+38 -3.4e+38 -3.4e+38 -3.4e+38 -3.4e+38 -3.4e+38 -3.4e+38 -3.4e+38 -3.4e+38 -3.4e+38 -3.4e+38 -3.4e+38 -3.4e+38 -3.4e+38 -3.4e+38 -3.4e+38 -3.4e+38 -3.4e+38 -3.4e+38 -3.4e+38 -3.4e+38 -3.4e+38 -3.4e+38 -3.4e+38 -3.4e+38 -3.4e+38 -3.4e+38 -3.4e+38 -3.4e+38 -3.4e+38 -3.4e+38 -3.4e+38 -3.4e+38 -3.4e+38 -3.4e+38 -3.4e+38 -3.4e+38 -3.4e+38 -3.4e+38 -3.4e+38 -3.4e+38 -3.4e+38 -3.4e+38 -3.4e+38 -3.4e+38 -3.4e+38 -3.4e+38 -3.4e+38 -3.4e+38 -3.4e+38 -3.4e+38 -3.4e+38 -3.4e+38 -3.4e+38 -3.4e+38 -3.4e+38 -3.4e+38 -3.4e+38 -3.4e+38 -3.4e+38 -3.4e+38
3364.4189453125 3362.13134765625 3360.01440429688 3357.7607421875 3355.40258789062 3352.9716796875 3350.49194335938 3347.76953125 3345.00390625 3342.19677734375 3339.01513671875 3335.13891601562 3331.3564453125 3328.09326171875 3324.75805664062 3320.87915039062 3317.27661132812 3314.28759765625 3311.16723632812 3307.8046875 3305.25830078125 3303.6396484375 3302.06689453125 3300.43896484375 3299.06909179688 3297.91064453125 3296.59057617188 3294.98950195312 3293.25756835938 3291.5537109375 3289.78125 3288.10107421875 3286.61474609375 3285.14086914062 3283.41040039062 3281.39672851562 3279.18774414062 3276.71142578125 3274.03540039062 3271.54711914062 3269.44848632812 3267.10791015625 3264.37255859375 3261.61157226562 3258.92016601562 3255.17016601562 3250.30004882812 3245.88647460938 3242.35107421875 3238.744140625 3234.83154296875 3230.78125 3226.01000976562 3220.78564453125 3216.3427734375 3212.58813476562 3209.31860351562 3207.53833007812 3207.865234375 3208.5927734375 3208.68676757812 3207.79956054688 3206.05639648438 3203.64990234375 3201.13256835938 3198.6298828125 3196.29907226562 3194.14721679688 3192.29052734375 3191.27807617188 3190.81420898438 3191.3662109375 3193.13061523438 3194.91064453125 3196.27954101562 3197.150390625 3197.35131835938 3197.54174804688 3197.93090820312 3198.94067382812 3201.64404296875 3205.44775390625 3208.47729492188 3210.94848632812 3213.66748046875 3217.05200195312 3220.95776367188 3226.55029296875 3232.50732421875 3237.43896484375 3242.74877929688 3249.38037109375 3255.82543945312 3260.41040039062 3265.16137695312 3270.34423828125 3274.70849609375 3278.8154296875 3283.11279296875 3287.720703125 3292.23071289062 3295.734375 3299.11010742188 3302.66674804688 3306.14526367188 3309.50366210938 3313.3408203125 3317.26489257812 3321.35888671875 3325.38110351562 3329.5 3333.59375 3337.4658203125 3341.00634765625 3343.95629882812 3346.26000976562 3348.51806640625 3351.20166015625 3353.78881835938 3355.77734375 3357.15551757812 3358.49389648438 3360.27197265625 3362.4384765625 3364.45922851562 3366.60278320312 3368.60717773438 3370.31372070312 3372.10424804688 3374.498046875 3376.95727539062 3379.21069335938 3381.41528320312 3383.99389648438 3386.822265625 3389.4091796875 3391.7998046875 3394.17846679688 3396.63330078125 3399.08715820312 3401.39404296875 3403.40502929688 3405.11547851562 3406.70825195312 3408.65356445312 3410.80932617188 3412.845703125 3414.97021484375 3417.96997070312 3421.47924804688 3424.68676757812 3427.78662109375 3431.6884765625 3435.91381835938 3439.66284179688 3443.71923828125 3448.57495117188 3453.68920898438 3458.66381835938 3463.55395507812 3467.98364257812 3471.84741210938 3474.9306640625 3477.5029296875 3479.43432617188 3481.06518554688 3482.40087890625 3483.67602539062 3484.7080078125 3485.36401367188 -3.4e+38 -3.4e+38 -3.4e+38 -3.4e+38 -3.4e+38 -3.4e+38 -3.4e+38 -3.4e+38 -3.4e+38 -3.4e+38 -3.4e+38 -3.4e+38 -3.4e+38 -3.4e+38 -3.4e+38 -3.4e+38 -3.4e+38 -3.4e+38 -3.4e+38 -3.4e+38 -3.4e+38 -3.4e+38 -3.4e+38 -3.4e+38 -3.4e+38 -3.4e+38 -3.4e+38 -3.4e+38 -3.4e+38 -3.4e+38 -3.4e+38 -3.4e+38 -3.4e+38 -3.4e+38 -3.4e+38 -3.4e+38 -3.4e+38 -3.4e+38 -3.4e+38 -3.4e+38 -3.4e+38 -3.4e+38 -3.4e+38 -3.4e+38 -3.4e+38 -3.4e+38 -3.4e+38 -3.4e+38 -3.4e+38 -3.4e+38 -3.4e+38 -3.4e+38 -3.4e+38 -3.4e+38 -3.4e+38 -3.4e+38 -3.4e+38 -3.4e+38 -3.4e+38 -3.4e+38 -3.4e+38 -3.4e+38 -3.4e+38
3366.7578125 3364.5009765625 3362.23779296875 3359.80078125 3357.30322265625 3354.82104492188 3352.2744140625 3349.31640625 3346.3134765625 3343.56787109375 3340.43725585938 3336.30200195312 3332.265625 3328.94458007812 3325.58032226562 3321.78125 3318.267578125 3315.55883789062 3312.80737304688 3309.87353515625 3307.68212890625 3306.34887695312 3305.09448242188 3303.70532226562 3302.2119140625 3300.74829101562 3299.14697265625 3297.376953125 3295.6162109375 3293.83032226562 3291.8701171875 3290.083984375 3288.55737304688 3287.02734375 3285.2900390625 3283.37744140625 3281.38940429688 3279.0546875 3276.31958007812 3273.6953125 3271.34985351562 3268.72119140625 3265.85522460938 3263.04052734375 3260.25561523438 3256.63623046875 3251.880859375 3247.1162109375 3243.23266601562 3239.30517578125 3235.00366210938 3231.1337890625 3227.31567382812 3223.33959960938 3219.78002929688 3216.31396484375 3212.83056640625 3210.73852539062 3210.9130859375 3211.56567382812 3211.61791992188 3210.77880859375 3209.13354492188 3206.87524414062 3204.19409179688 3201.42944335938 3198.966796875 3196.79077148438 3195.52319335938 3195.498046875 3195.36181640625 3195.40991210938 3196.04565429688 3197.11572265625 3197.68725585938 3197.84130859375 3197.7021484375 3197.53295898438 3197.64086914062 3198.62939453125 3201.2060546875 3204.92602539062 3207.99438476562 3210.56689453125 3213.41015625 3216.87841796875 3220.65283203125 3225.7998046875 3231.44140625 3236.15405273438 3240.90869140625 3246.71142578125 3252.72680664062 3257.6337890625 3262.48901367188 3267.9013671875 3272.48559570312 3276.5576171875 3280.75317382812 3284.98046875 3289.11694335938 3292.73559570312 3296.34594726562 3300.07641601562 3303.89868164062 3307.69287109375 3312.15478515625 3316.71313476562 3320.728515625 3324.65478515625 3329.12353515625 3333.3046875 3337.11401367188 3340.79663085938 3343.85083007812 3346.0908203125 3348.22973632812 3350.76538085938 3353.34130859375 3355.38745117188 3356.82543945312 3358.22973632812 3360 3362.28100585938 3364.4853515625 3366.7373046875 3368.70776367188 3370.32861328125 3372.080078125 3374.3701171875 3376.80493164062 3379.0146484375 3381.23828125 3383.91674804688 3386.89794921875 3389.58911132812 3391.98974609375 3394.126953125 3396.18359375 3398.1953125 3400.2216796875 3402.09106445312 3403.79028320312 3405.45288085938 3407.5048828125 3409.93701171875 3412.23852539062 3414.51782226562 3417.57348632812 3421.1533203125 3424.50659179688 3427.76538085938 3431.80029296875 3436.1416015625 3440.03125 3444.31640625 3449.41064453125 3454.56860351562 3459.40356445312 3464.18359375 3468.61181640625 3472.62548828125 3475.72045898438 3478.1474609375 3480.03588867188 3481.62524414062 3483.02197265625 3484.4248046875 3485.54907226562 3486.29931640625 3486.90625 -3.4e+38 -3.4e+38 -3.4e+38 -3.4e+38 -3.4e+38 -3.4e+38 -3.4e+38 -3.4e+38 -3.4e+38 -3.4e+38 -3.4e+38 -3.4e+38 -3.4e+38 -3.4e+38 -3.4e+38 -3.4e+38 -3.4e+38 -3.4e+38 -3.4e+38 -3.4e+38 -3.4e+38 -3.4e+38 -3.4e+38 -3.4e+38 -3.4e+38 -3.4e+38 -3.4e+38 -3.4e+38 -3.4e+38 -3.4e+38 -3.4e+38 -3.4e+38 -3.4e+38 -3.4e+38 -3.4e+38 -3.4e+38 -3.4e+38 -3.4e+38 -3.4e+38 -3.4e+38 -3.4e+38 -3.4e+38 -3.4e+38 -3.4e+38 -3.4e+38 -3.4e+38 -3.4e+38 -3.4e+38 -3.4e+38 -3.4e+38 -3.4e+38 -3.4e+38 -3.4e+38 -3.4e+38 -3.4e+38 -3.4e+38 -3.4e+38 -3.4e+38 -3.4e+38 -3.4e+38 -3.4e+38 -3.4e+38
3368.81396484375 3366.58032226562 3364.26342773438 3361.64184570312 3358.9169921875 3356.345703125 3353.79541015625 3350.716796875 3347.47729492188 3344.51904296875 3341.33471679688 3337.19873046875 3332.97387695312 3329.54711914062 3326.30078125 3322.63159179688 3319.20043945312 3316.57470703125 3314.283203125 3312.18725585938 3310.3876953125 3309.05395507812 3307.806640625 3306.51416015625 3305.05615234375 3303.4453125 3301.65869140625 3299.77880859375 3297.9013671875 3296.03100585938 3293.89794921875 3291.91284179688 3290.34643554688 3288.810546875 3286.99389648438 3285.08203125 3283.25659179688 3281.12036132812 3278.45581054688 3275.666015625 3273.0546875 3270.17749023438 3267.13452148438 3264.265625 3261.47534179688 3257.99780273438 3253.42236328125 3248.41650390625 3244.21606445312 3240.02612304688 3235.37182617188 3231.7041015625 3229.02392578125 3225.92260742188 3222.65063476562 3219.5322265625 3216.57348632812 3214.55639648438 3214.11279296875 3214.64038085938 3214.77880859375 3213.814453125 3212.064453125 3209.97412109375 3207.37719726562 3204.58374023438 3201.9736328125 3199.81323242188 3199.03198242188 3199.35034179688 3199.07373046875 3198.67431640625 3198.73291015625 3199.04223632812 3199.015625 3198.79125976562 3198.29370117188 3197.6611328125 3197.42529296875 3198.2314453125 3200.58251953125 3204.00341796875 3206.95776367188 3209.68432617188 3212.61059570312 3216.04736328125 3219.71215820312 3224.35620117188 3229.50610351562 3233.96606445312 3238.28662109375 3243.36572265625 3248.82885742188 3253.912109375 3258.95239257812 3264.51904296875 3269.55859375 3273.578125 3277.548828125 3281.44970703125 3285.22729492188 3289.05200195312 3293.17602539062 3297.48681640625 3302.111328125 3306.55102539062 3311.36157226562 3316.33447265625 3320.32543945312 3323.98583984375 3328.38330078125 3332.61083984375 3336.4033203125 3340.20532226562 3343.43627929688 3345.54467773438 3347.49877929688 3349.90161132812 3352.52905273438 3354.67602539062 3356.2119140625 3357.6845703125 3359.42822265625 3361.72387695312 3364.11987304688 3366.40478515625 3368.40649414062 3370.1025390625 3371.85205078125 3374.11669921875 3376.58959960938 3378.80395507812 3380.98364257812 3383.67895507812 3386.69995117188 3389.39379882812 3391.76733398438 3393.81030273438 3395.59228515625 3397.22241210938 3399.0009765625 3400.74780273438 3402.31225585938 3404.02172851562 3406.39306640625 3409.14379882812 3411.76635742188 3414.19140625 3417.29907226562 3420.91552734375 3424.314453125 3427.76538085938 3431.9248046875 3436.3544921875 3440.39135742188 3444.92407226562 3450.23974609375 3455.3515625 3459.99291992188 3464.66796875 3469.09814453125 3473.14575195312 3476.25146484375 3478.65771484375 3480.62915039062 3482.30493164062 3483.798828125 3485.27416992188 3486.50927734375 3487.39111328125 3488 -3.4e+38 -3.4e+38 -3.4e+38 -3.4e+38 -3.4e+38 -3.4e+38 -3.4e+38 -3.4e+38 -3.4e+38 -3.4e+38 -3.4e+38 -3.4e+38 -3.4e+38 -3.4e+38 -3.4e+38 -3.4e+38 -3.4e+38 -3.4e+38 -3.4e+38 -3.4e+38 -3.4e+38 -3.4e+38 -3.4e+38 -3.4e+38 -3.4e+38 -3.4e+38 -3.4e+38 -3.4e+38 -3.4e+38 -3.4e+38 -3.4e+38 -3.4e+38 -3.4e+38 -3.4e+38 -3.4e+38 -3.4e+38 -3.4e+38 -3.4e+38 -3.4e+38 -3.4e+38 -3.4e+38 -3.4e+38 -3.4e+38 -3.4e+38 -3.4e+38 -3.4e+38 -3.4e+38 -3.4e+38 -3.4e+38 -3.4e+38 -3.4e+38 -3.4e+38 -3.4e+38 -3.4e+38 -3.4e+38 -3.4e+38 -3.4e+38 -3.4e+38 -3.4e+38 -3.4e+38 -3.4e+38 -3.4e+38
3370.66235351562 3368.35473632812 3366.03491210938 3363.30249023438 3360.43896484375 3357.74145507812 3355.12719726562 3352.01171875 3348.5478515625 3345.27075195312 3341.966796875 3337.83349609375 3333.50439453125 3329.97973632812 3326.82421875 3323.359375 3319.98461914062 3317.46362304688 3315.68310546875 3314.26879882812 3312.88354492188 3311.65380859375 3310.28076171875 3308.87158203125 3307.45703125 3305.9853515625 3304.22680664062 3302.23486328125 3300.21899414062 3298.23657226562 3296.02734375 3293.85034179688 3292.08032226562 3290.4765625 3288.69067382812 3286.7509765625 3284.91650390625 3282.88061523438 3280.345703125 3277.4658203125 3274.6513671875 3271.51806640625 3268.24682617188 3265.27294921875 3262.4130859375 3258.953125 3254.57153320312 3249.71508789062 3245.390625 3241.42578125 3237.38720703125 3234.05102539062 3231.52172851562 3228.44189453125 3224.873046875 3221.59790039062 3218.830078125 3217.34912109375 3217.24975585938 3217.98974609375 3218.34448242188 3217.4248046875 3215.53076171875 3213.22314453125 3210.58862304688 3207.87255859375 3205.52075195312 3203.85815429688 3203.07055664062 3202.771484375 3202.23193359375 3201.42993164062 3200.732421875 3200.333984375 3199.8740234375 3199.45263671875 3198.837890625 3198.00146484375 3197.54956054688 3198.09008789062 3199.91723632812 3202.73266601562 3205.57666015625 3208.306640625 3211.22290039062 3214.61083984375 3218.24829101562 3222.56616210938 3227.107421875 3231.18115234375 3235.2099609375 3239.9052734375 3244.85498046875 3249.81469726562 3255.0400390625 3260.72680664062 3266.1162109375 3270.2734375 3273.95825195312 3277.57983398438 3281.095703125 3284.81079101562 3289.451171875 3294.671875 3300.30249023438 3305.50219726562 3310.45751953125 3315.39428710938 3319.3974609375 3322.99438476562 3327.21752929688 3331.40063476562 3335.22680664062 3339.14819335938 3342.56079101562 3344.7529296875 3346.53125 3348.673828125 3351.25732421875 3353.5478515625 3355.26831054688 3356.84521484375 3358.525390625 3360.65014648438 3363.1953125 3365.62670898438 3367.82177734375 3369.60766601562 3371.404296875 3373.68188476562 3376.1416015625 3378.29174804688 3380.50634765625 3383.22338867188 3386.15942382812 3388.80322265625 3391.1796875 3393.20825195312 3394.89526367188 3396.30078125 3397.86938476562 3399.59375 3401.20581054688 3403.0087890625 3405.5576171875 3408.52172851562 3411.31762695312 3413.89331054688 3417.08032226562 3420.76733398438 3424.20776367188 3427.74267578125 3432.05639648438 3436.5712890625 3440.71142578125 3445.42529296875 3450.84399414062 3455.86401367188 3460.3203125 3464.91357421875 3469.3955078125 3473.4853515625 3476.62158203125 3479.11474609375 3481.29858398438 3483.15087890625 3484.73388671875 3486.24975585938 3487.59155273438 3488.5263671875 3489.05444335938 -3.4e+38 -3.4e+38 -3.4e+38 -3.4e+38 -3.4e+38 -3.4e+38 -3.4e+38 -3.4e+38 -3.4e+38 -3.4e+38 -3.4e+38 -3.4e+38 -3.4e+38 -3.4e+38 -3.4e+38 -3.4e+38 -3.4e+38 -3.4e+38 -3.4e+38 -3.4e+38 -3.4e+38 -3.4e+38 -3.4e+38 -3.4e+38 -3.4e+38 -3.4e+38 -3.4e+38 -3.4e+38 -3.4e+38 -3.4e+38 -3.4e+38 -3.4e+38 -3.4e+38 -3.4e+38 -3.4e+38 -3.4e+38 -3.4e+38 -3.4e+38 -3.4e+38 -3.4e+38 -3.4e+38 -3.4e+38 -3.4e+38 -3.4e+38 -3.4e+38 -3.4e+38 -3.4e+38 -3.4e+38 -3.4e+38 -3.4e+38 -3.4e+38 -3.4e+38 -3.4e+38 -3.4e+38 -3.4e+38 -3.4e+38 -3.4e+38 -3.4e+38 -3.4e+38 -3.4e+38 -3.4e+38 -3.4e+38
3372.38793945312 3370.00439453125 3367.57055664062 3364.73022460938 3361.79956054688 3359.07788085938 3356.4658203125 3353.25219726562 3349.47583007812 3345.9169921875 3342.44384765625 3338.23291015625 3333.84350585938 3330.34985351562 3327.43579101562 3324.2822265625 3321.12915039062 3319.03735351562 3317.65478515625 3316.57006835938 3315.37915039062 3314.22729492188 3312.77465820312 3311.13647460938 3309.65844726562 3308.22412109375 3306.56274414062 3304.61743164062 3302.61645507812 3300.57470703125 3298.26904296875 3295.9775390625 3294.01318359375 3292.18139648438 3290.34765625 3288.45776367188 3286.58325195312 3284.47924804688 3281.99560546875 3279.17529296875 3276.19116210938 3272.77880859375 3269.25561523438 3266.13696289062 3263.134765625 3259.49584960938 3255.41455078125 3251.1630859375 3247.19580078125 3243.64965820312 3240.31372070312 3237.34692382812 3234.47778320312 3230.9873046875 3227.07373046875 3223.37036132812 3220.2705078125 3219.26025390625 3220.08056640625 3221.08129882812 3221.47436523438 3220.77709960938 3219.05883789062 3216.65942382812 3213.82006835938 3210.97338867188 3208.77075195312 3207.46606445312 3206.51611328125 3205.60107421875 3204.79760742188 3203.53247070312 3201.84106445312 3200.62377929688 3199.96655273438 3199.4072265625 3198.79833984375 3198.16796875 3197.85571289062 3198.32104492188 3199.44482421875 3201.19775390625 3203.6494140625 3206.3125 3209.23901367188 3212.70825195312 3216.49853515625 3220.53881835938 3224.54760742188 3228.33911132812 3232.1708984375 3236.68383789062 3241.287109375 3245.88696289062 3251.05126953125 3256.72021484375 3262.1328125 3266.45141601562 3270.2529296875 3273.86743164062 3277.23828125 3280.72827148438 3285.93383789062 3292.27490234375 3298.32275390625 3303.95751953125 3309.11303710938 3313.84765625 3317.86157226562 3321.53955078125 3325.77416992188 3330.00415039062 3333.58349609375 3337.29150390625 3341.01879882812 3343.5400390625 3345.20825195312 3346.9814453125 3349.236328125 3351.79541015625 3353.80200195312 3355.6181640625 3357.18090820312 3359.26513671875 3361.828125 3364.57641601562 3367.05419921875 3368.96459960938 3370.828125 3373.12084960938 3375.56323242188 3377.70190429688 3379.92016601562 3382.55883789062 3385.38232421875 3387.947265625 3390.28857421875 3392.3046875 3393.96850585938 3395.31860351562 3396.88671875 3398.7333984375 3400.44213867188 3402.32080078125 3404.91455078125 3407.96142578125 3410.84545898438 3413.537109375 3416.83471679688 3420.63208007812 3424.13354492188 3427.75146484375 3432.10864257812 3436.65991210938 3440.9169921875 3445.74243164062 3451.10473632812 3456.0888671875 3460.48828125 3465.04028320312 3469.59619140625 3473.77001953125 3476.93774414062 3479.50366210938 3481.8701171875 3483.86962890625 3485.53735351562 3487.19653320312 3488.58984375 3489.41967773438 3489.923828125 -3.4e+38 -3.4e+38 -3.4e+38 -3.4e+38 -3.4e+38 -3.4e+38 -3.4e+38 -3.4e+38 -3.4e+38 -3.4e+38 -3.4e+38 -3.4e+38 -3.4e+38 -3.4e+38 -3.4e+38 -3.4e+38 -3.4e+38 -3.4e+38 -3.4e+38 -3.4e+38 -3.4e+38 -3.4e+38 -3.4e+38 -3.4e+38 -3.4e+38 -3.4e+38 -3.4e+38 -3.4e+38 -3.4e+38 -3.4e+38 -3.4e+38 -3.4e+38 -3.4e+38 -3.4e+38 -3.4e+38 -3.4e+38 -3.4e+38 -3.4e+38 -3.4e+38 -3.4e+38 -3.4e+38 -3.4e+38 -3.4e+38 -3.4e+38 -3.4e+38 -3.4e+38 -3.4e+38 -3.4e+38 -3.4e+38 -3.4e+38 -3.4e+38 -3.4e+38 -3.4e+38 -3.4e+38 -3.4e+38 -3.4e+38 -3.4e+38 -3.4e+38 -3.4e+38 -3.4e+38 -3.4e+38 -3.4e+38
3374.05883789062 3371.48510742188 3368.91723632812 3366.03076171875 3363.02880859375 3360.23754882812 3357.5595703125 3354.17211914062 3350.1962890625 3346.47265625 3342.82666015625 3338.60668945312 3334.22143554688 3330.73413085938 3327.95703125 3325.43725585938 3322.96313476562 3321.13012695312 3319.85522460938 3318.79760742188 3317.8251953125 3316.68994140625 3315.08984375 3313.4052734375 3311.84545898438 3310.30053710938 3308.58666992188 3306.80395507812 3305.02758789062 3303.04077148438 3300.58569335938 3298.1787109375 3296.14819335938 3294.11010742188 3292.05541992188 3290.10327148438 3288.19653320312 3285.97607421875 3283.47900390625 3280.77709960938 3277.71215820312 3274.02172851562 3270.26318359375 3267.00122070312 3263.91845703125 3260.1005859375 3256.19409179688 3252.8544921875 3249.6650390625 3246.46142578125 3243.53466796875 3240.7109375 3237.4599609375 3233.59130859375 3229.65307617188 3225.78662109375 3222.45361328125 3221.56787109375 3222.67138671875 3223.66748046875 3223.9541015625 3223.34643554688 3221.98486328125 3219.99291992188 3217.2470703125 3214.21020507812 3211.63916015625 3209.88427734375 3208.88916015625 3208.01928710938 3206.7626953125 3204.86303710938 3201.974609375 3199.73510742188 3199.25903320312 3198.81494140625 3198.37451171875 3198.20043945312 3198.349609375 3198.92626953125 3199.55615234375 3200.20629882812 3201.58764648438 3204.04077148438 3207.13916015625 3210.697265625 3214.6025390625 3218.4404296875 3222.01049804688 3225.54809570312 3229.25634765625 3233.59399414062 3238.00952148438 3242.25952148438 3247.18090820312 3252.8037109375 3258.06323242188 3262.4111328125 3266.48022460938 3270.22290039062 3274.0439453125 3278.28344726562 3283.9306640625 3290.40185546875 3296.22900390625 3301.9208984375 3307.42749023438 3312.16357421875 3316.21826171875 3319.994140625 3324.17602539062 3328.24096679688 3331.53515625 3334.97778320312 3338.58471679688 3341.43603515625 3343.39135742188 3344.94262695312 3346.82006835938 3349.20483398438 3351.4658203125 3353.52124023438 3355.19799804688 3357.30688476562 3360.19262695312 3363.36572265625 3366.1474609375 3368.267578125 3370.15551757812 3372.4541015625 3374.85668945312 3376.94604492188 3379.17700195312 3381.76708984375 3384.3935546875 3386.72705078125 3389.03002929688 3391.14819335938 3392.8681640625 3394.19213867188 3395.84423828125 3397.89453125 3399.85205078125 3401.8408203125 3404.4560546875 3407.49340820312 3410.39086914062 3413.18872070312 3416.57104492188 3420.45385742188 3424.04711914062 3427.78735351562 3432.1748046875 3436.69140625 3440.982421875 3445.92138671875 3451.27001953125 3456.21704101562 3460.5966796875 3465.173828125 3469.7705078125 3473.931640625 3477.1298828125 3479.82446289062 3482.318359375 3484.40991210938 3486.271484375 3488.09936523438 3489.427734375 3490.12817382812 3490.6904296875 -3.4e+38 -3.4e+38 -3.4e+38 -3.4e+38 -3.4e+38 -3.4e+38 -3.4e+38 -3.4e+38 -3.4e+38 -3.4e+38 -3.4e+38 -3.4e+38 -3.4e+38 -3.4e+38 -3.4e+38 -3.4e+38 -3.4e+38 -3.4e+38 -3.4e+38 -3.4e+38 -3.4e+38 -3.4e+38 -3.4e+38 -3.4e+38 -3.4e+38 -3.4e+38 -3.4e+38 -3.4e+38 -3.4e+38 -3.4e+38 -3.4e+38 -3.4e+38 -3.4e+38 -3.4e+38 -3.4e+38 -3.4e+38 -3.4e+38 -3.4e+38 -3.4e+38 -3.4e+38 -3.4e+38 -3.4e+38 -3.4e+38 -3.4e+38 -3.4e+38 -3.4e+38 -3.4e+38 -3.4e+38 -3.4e+38 -3.4e+38 -3.4e+38 -3.4e+38 -3.4e+38 -3.4e+38 -3.4e+38 -3.4e+38 -3.4e+38 -3.4e+38 -3.4e+38 -3.4e+38 -3.4e+38 -3.4e+38
3375.8408203125 3373.04956054688 3370.33935546875 3367.35205078125 3364.21337890625 3361.17578125 3358.13891601562 3354.58666992188 3350.65551757812 3347.00366210938 3343.25634765625 3339.0205078125 3334.67065429688 3331.1591796875 3328.49926757812 3326.47045898438 3324.75463867188 3323.3095703125 3322.0126953125 3320.91235351562 3319.88500976562 3318.78076171875 3317.32983398438 3315.58618164062 3313.91772460938 3312.30297851562 3310.51416015625 3308.74243164062 3307.1171875 3305.36450195312 3302.98193359375 3300.48852539062 3298.33813476562 3296.16723632812 3293.90576171875 3291.763671875 3289.81030273438 3287.4892578125 3284.83935546875 3282.12890625 3279.11938476562 3275.318359375 3271.32153320312 3267.9326171875 3264.91284179688 3261.19848632812 3257.53369140625 3254.79272460938 3252.21484375 3249.38793945312 3246.7421875 3244.07568359375 3240.5048828125 3236.19799804688 3232.24096679688 3228.84521484375 3226.03002929688 3224.85668945312 3225.45849609375 3226.33227539062 3226.59838867188 3225.8740234375 3224.57495117188 3222.9921875 3220.63110351562 3217.783203125 3215.29858398438 3213.39013671875 3212.00415039062 3210.61645507812 3208.54370117188 3206.0712890625 3202.42626953125 3198.92553710938 3198.29614257812 3198.14404296875 3198.12866210938 3198.34887695312 3198.94482421875 3199.63427734375 3200.16870117188 3200.33813476562 3200.6435546875 3202.56518554688 3205.9716796875 3209.39086914062 3212.97729492188 3216.57470703125 3219.64282226562 3222.74609375 3226.39624023438 3230.62719726562 3234.87524414062 3238.9541015625 3243.57250976562 3248.94262695312 3254.26586914062 3258.64135742188 3262.89990234375 3266.8994140625 3271.16821289062 3276.65747070312 3282.71752929688 3288.68383789062 3294.28076171875 3299.79052734375 3305.49243164062 3310.41625976562 3314.52294921875 3318.43041992188 3322.3662109375 3326.08227539062 3329.21557617188 3332.33666992188 3335.5654296875 3338.48486328125 3340.669921875 3342.24682617188 3343.80883789062 3345.8564453125 3348.4111328125 3350.96875 3353.11962890625 3355.58959960938 3358.5966796875 3362.07861328125 3365.16137695312 3367.43627929688 3369.40502929688 3371.73364257812 3374.0966796875 3376.216796875 3378.4482421875 3380.92260742188 3383.298828125 3385.3984375 3387.62280273438 3389.701171875 3391.46606445312 3392.93676757812 3394.64624023438 3396.84545898438 3399.18017578125 3401.3720703125 3404.08251953125 3407.134765625 3409.97119140625 3412.84643554688 3416.34594726562 3420.25317382812 3423.92602539062 3427.81201171875 3432.22290039062 3436.69873046875 3440.99731445312 3446.04931640625 3451.43041992188 3456.3271484375 3460.67749023438 3465.29736328125 3469.91528320312 3474.01831054688 3477.22509765625 3480.02001953125 3482.66943359375 3484.89599609375 3486.95336914062 3488.86596679688 3490.11791992188 3490.86328125 3491.45825195312 -3.4e+38 -3.4e+38 -3.4e+38 -3.4e+38 -3.4e+38 -3.4e+38 -3.4e+38 -3.4e+38 -3.4e+38 -3.4e+38 -3.4e+38 -3.4e+38 -3.4e+38 -3.4e+38 -3.4e+38 -3.4e+38 -3.4e+38 -3.4e+38 -3.4e+38 -3.4e+38 -3.4e+38 -3.4e+38 -3.4e+38 -3.4e+38 -3.4e+38 -3.4e+38 -3.4e+38 -3.4e+38 -3.4e+38 -3.4e+38 -3.4e+38 -3.4e+38 -3.4e+38 -3.4e+38 -3.4e+38 -3.4e+38 -3.4e+38 -3.4e+38 -3.4e+38 -3.4e+38 -3.4e+38 -3.4e+38 -3.4e+38 -3.4e+38 -3.4e+38 -3.4e+38 -3.4e+38 -3.4e+38 -3.4e+38 -3.4e+38 -3.4e+38 -3.4e+38 -3.4e+38 -3.4e+38 -3.4e+38 -3.4e+38 -3.4e+38 -3.4e+38 -3.4e+38 -3.4e+38 -3.4e+38 -3.4e+38
3377.54443359375 3374.67431640625 3371.85546875 3368.57861328125 3365.2119140625 3362.04418945312 3358.6640625 3354.80053710938 3350.9453125 3347.40844726562 3343.69580078125 3339.52978515625 3335.19409179688 3331.591796875 3329.10327148438 3327.61547851562 3326.39672851562 3325.24072265625 3323.9501953125 3322.75854492188 3321.66845703125 3320.54296875 3319.12841796875 3317.43994140625 3315.7939453125 3314.17260742188 3312.29614257812 3310.4521484375 3308.90283203125 3307.296875 3305.1865234375 3302.82250976562 3300.60571289062 3298.263671875 3295.81176757812 3293.58154296875 3291.4990234375 3288.9638671875 3286.09619140625 3283.31176757812 3280.37329101562 3276.5625 3272.45263671875 3268.99365234375 3266.11157226562 3262.78686523438 3259.4853515625 3257.01318359375 3254.72607421875 3252.16357421875 3249.5439453125 3246.96728515625 3243.37182617188 3238.62377929688 3234.1796875 3231.18237304688 3229.17041015625 3228.03002929688 3228.388671875 3229.3486328125 3229.66259765625 3228.86181640625 3227.46313476562 3225.84887695312 3223.67944335938 3221.26391601562 3219.1689453125 3217.56909179688 3215.93359375 3213.57202148438 3210.59497070312 3207.62817382812 3204.22412109375 3200.1865234375 3198.53515625 3198.14379882812 3198.32250976562 3198.71997070312 3199.5322265625 3200.2998046875 3200.57446289062 3200.53759765625 3200.814453125 3202.54296875 3206.10815429688 3209.1083984375 3212.0087890625 3215.24682617188 3217.88403320312 3220.263671875 3223.58520507812 3227.93896484375 3232.00512695312 3235.91870117188 3240.45971679688 3245.3515625 3250.55322265625 3255.21655273438 3260.01318359375 3265.07055664062 3269.71362304688 3275.29663085938 3281.58422851562 3287.2431640625 3292.39331054688 3297.66381835938 3303.55102539062 3308.68115234375 3312.72021484375 3316.83618164062 3320.69384765625 3323.85693359375 3326.708984375 3329.61499023438 3332.51123046875 3334.96997070312 3337.06811523438 3339.02172851562 3340.71801757812 3342.61157226562 3345.15307617188 3348.51342773438 3351.5556640625 3354.279296875 3357.2138671875 3360.67651367188 3363.99584960938 3366.4609375 3368.61889648438 3370.93237304688 3373.22705078125 3375.36303710938 3377.61279296875 3379.99291992188 3382.16577148438 3384.08276367188 3386.12841796875 3388.11767578125 3389.88159179688 3391.44213867188 3393.23486328125 3395.59497070312 3398.29931640625 3400.826171875 3403.69555664062 3406.79296875 3409.61962890625 3412.52392578125 3416.10473632812 3420.06030273438 3423.81787109375 3427.82080078125 3432.23095703125 3436.6826171875 3441.01733398438 3446.18286132812 3451.58032226562 3456.41772460938 3460.74365234375 3465.37451171875 3470.04321289062 3474.12939453125 3477.33203125 3480.20043945312 3482.99340820312 3485.35717773438 3487.49780273438 3489.45874023438 3490.734375 3491.5830078125 3492.240234375 -3.4e+38 -3.4e+38 -3.4e+38 -3.4e+38 -3.4e+38 -3.4e+38 -3.4e+38 -3.4e+38 -3.4e+38 -3.4e+38 -3.4e+38 -3.4e+38 -3.4e+38 -3.4e+38 -3.4e+38 -3.4e+38 -3.4e+38 -3.4e+38 -3.4e+38 -3.4e+38 -3.4e+38 -3.4e+38 -3.4e+38 -3.4e+38 -3.4e+38 -3.4e+38 -3.4e+38 -3.4e+38 -3.4e+38 -3.4e+38 -3.4e+38 -3.4e+38 -3.4e+38 -3.4e+38 -3.4e+38 -3.4e+38 -3.4e+38 -3.4e+38 -3.4e+38 -3.4e+38 -3.4e+38 -3.4e+38 -3.4e+38 -3.4e+38 -3.4e+38 -3.4e+38 -3.4e+38 -3.4e+38 -3.4e+38 -3.4e+38 -3.4e+38 -3.4e+38 -3.4e+38 -3.4e+38 -3.4e+38 -3.4e+38 -3.4e+38 -3.4e+38 -3.4e+38 -3.4e+38 -3.4e+38 -3.4e+38
3379.16918945312 3376.31176757812 3373.3369140625 3369.80126953125 3366.17138671875 3362.82080078125 3359.18798828125 3355.04467773438 3351.14135742188 3347.58251953125 3343.86889648438 3339.99780273438 3336.0244140625 3332.5498046875 3330.3916015625 3329.23876953125 3328.17358398438 3327.01489257812 3325.8046875 3324.55102539062 3323.2822265625 3322.10473632812 3320.6796875 3319.072265625 3317.56982421875 3316.00146484375 3314.06567382812 3312.09643554688 3310.47875976562 3308.90307617188 3307.04907226562 3304.99340820312 3302.8291015625 3300.32275390625 3297.69189453125 3295.36352539062 3293.1240234375 3290.41186523438 3287.34619140625 3284.4033203125 3281.45385742188 3277.7255859375 3273.71704101562 3270.24731445312 3267.4013671875 3264.54614257812 3261.73486328125 3259.46337890625 3257.37109375 3254.89697265625 3252.13354492188 3249.35498046875 3245.8291015625 3240.9150390625 3235.74267578125 3232.34790039062 3230.51635742188 3230.08544921875 3231.04614257812 3232.26831054688 3232.64428710938 3231.93408203125 3230.60083007812 3228.86865234375 3226.6552734375 3224.2724609375 3222.26782226562 3220.443359375 3218.451171875 3215.8837890625 3212.7578125 3209.7607421875 3206.83813476562 3203.6064453125 3201.22509765625 3199.69018554688 3199.2705078125 3199.42529296875 3200.171875 3200.92016601562 3200.96337890625 3200.66625976562 3201.12573242188 3203.22875976562 3206.56909179688 3209.14624023438 3211.5751953125 3214.35424804688 3216.74243164062 3218.69750976562 3221.50830078125 3225.88647460938 3229.89306640625 3233.42456054688 3238.01708984375 3242.791015625 3247.98168945312 3253.64306640625 3259.1025390625 3264.24926757812 3269.12182617188 3274.3759765625 3280.46435546875 3285.83251953125 3290.619140625 3295.64477539062 3301.37060546875 3306.50048828125 3310.52685546875 3314.65869140625 3318.47509765625 3321.42114257812 3324.0576171875 3326.8330078125 3329.3251953125 3331.31005859375 3333.24096679688 3335.69604492188 3338.10278320312 3340.38818359375 3343.1708984375 3346.74389648438 3350.23315429688 3353.11157226562 3355.94897460938 3359.33715820312 3362.75512695312 3365.453125 3367.79956054688 3370.03515625 3372.22119140625 3374.318359375 3376.55810546875 3378.86743164062 3380.95190429688 3382.72900390625 3384.60034179688 3386.51391601562 3388.24267578125 3389.77661132812 3391.62817382812 3394.19140625 3397.27319335938 3400.20654296875 3403.29150390625 3406.41845703125 3409.26391601562 3412.23120117188 3415.8369140625 3419.87841796875 3423.71557617188 3427.80004882812 3432.23950195312 3436.68579101562 3441.06640625 3446.3173828125 3451.74926757812 3456.53759765625 3460.81616210938 3465.4580078125 3470.1630859375 3474.22045898438 3477.47265625 3480.46630859375 3483.322265625 3485.71997070312 3487.90234375 3489.89697265625 3491.31518554688 3492.24340820312 3492.96923828125 3493.66650390625 -3.4e+38 -3.4e+38 -3.4e+38 -3.4e+38 -3.4e+38 -3.4e+38 -3.4e+38 -3.4e+38 -3.4e+38 -3.4e+38 -3.4e+38 -3.4e+38 -3.4e+38 -3.4e+38 -3.4e+38 -3.4e+38 -3.4e+38 -3.4e+38 -3.4e+38 -3.4e+38 -3.4e+38 -3.4e+38 -3.4e+38 -3.4e+38 -3.4e+38 -3.4e+38 -3.4e+38 -3.4e+38 -3.4e+38 -3.4e+38 -3.4e+38 -3.4e+38 -3.4e+38 -3.4e+38 -3.4e+38 -3.4e+38 -3.4e+38 -3.4e+38 -3.4e+38 -3.4e+38 -3.4e+38 -3.4e+38 -3.4e+38 -3.4e+38 -3.4e+38 -3.4e+38 -3.4e+38 -3.4e+38 -3.4e+38 -3.4e+38 -3.4e+38 -3.4e+38 -3.4e+38 -3.4e+38 -3.4e+38 -3.4e+38 -3.4e+38 -3.4e+38 -3.4e+38 -3.4e+38 -3.4e+38
3380.81860351562 3377.88745117188 3374.71459960938 3370.98095703125 3367.13940429688 3363.56762695312 3359.7138671875 3355.32788085938 3351.26782226562 3347.69873046875 3343.97192382812 3340.40698242188 3337.2197265625 3334.34985351562 3332.32470703125 3331.125 3330.01782226562 3328.88891601562 3327.6416015625 3326.31127929688 3324.9541015625 3323.60473632812 3322.11328125 3320.55615234375 3319.158203125 3317.583984375 3315.60986328125 3313.6787109375 3312.0107421875 3310.34692382812 3308.5556640625 3306.75366210938 3304.81518554688 3302.24780273438 3299.43310546875 3296.88989257812 3294.50341796875 3291.65112304688 3288.44165039062 3285.33374023438 3282.26391601562 3278.75805664062 3275.0703125 3271.68920898438 3268.82739257812 3266.267578125 3263.95629882812 3261.93041992188 3259.95654296875 3257.5810546875 3254.8115234375 3251.798828125 3248.0703125 3243.16455078125 3237.58984375 3233.37255859375 3231.26879882812 3231.5703125 3233.22729492188 3234.6953125 3235.30517578125 3234.75219726562 3233.55932617188 3231.98046875 3229.89599609375 3227.45581054688 3225.2021484375 3223.04028320312 3220.62890625 3217.83715820312 3215.15014648438 3212.61694335938 3210.23559570312 3207.89331054688 3205.50122070312 3203.23168945312 3201.61889648438 3201.15551757812 3201.48876953125 3201.79833984375 3201.45825195312 3201.0673828125 3201.69067382812 3203.93237304688 3206.9775390625 3209.26293945312 3211.45678710938 3213.89599609375 3216.26635742188 3218.41162109375 3221.16333007812 3225.14672851562 3229.109375 3232.642578125 3236.97631835938 3241.65869140625 3246.9990234375 3253.37548828125 3259.18115234375 3263.73510742188 3268.310546875 3272.98901367188 3278.31884765625 3283.37963867188 3288.25952148438 3293.42626953125 3298.75317382812 3303.77954101562 3307.91381835938 3311.88330078125 3315.70556640625 3318.833984375 3321.40795898438 3323.90209960938 3326.19165039062 3328.134765625 3330.00024414062 3332.580078125 3335.77172851562 3338.92602539062 3341.99609375 3345.51147460938 3348.93798828125 3351.89038085938 3354.77392578125 3358.0810546875 3361.44970703125 3364.294921875 3366.86889648438 3369.10864257812 3371.12475585938 3373.07543945312 3375.30322265625 3377.64331054688 3379.68994140625 3381.2490234375 3383.0166015625 3384.90454101562 3386.6630859375 3388.25927734375 3390.19287109375 3392.9375 3396.24072265625 3399.50073242188 3402.84350585938 3406.01293945312 3408.86938476562 3411.90625 3415.55151367188 3419.65649414062 3423.60888671875 3427.791015625 3432.25561523438 3436.68408203125 3441.10888671875 3446.44897460938 3451.91259765625 3456.65234375 3460.90258789062 3465.5654296875 3470.28076171875 3474.32177734375 3477.60717773438 3480.65576171875 3483.6181640625 3486.07446289062 3488.28247070312 3490.30786132812 3491.90869140625 3492.9560546875 3493.77978515625 3494.63354492188 -3.4e+38 -3.4e+38 -3.4e+38 -3.4e+38 -3.4e+38 -3.4e+38 -3.4e+38 -3.4e+38 -3.4e+38 -3.4e+38 -3.4e+38 -3.4e+38 -3.4e+38 -3.4e+38 -3.4e+38 -3.4e+38 -3.4e+38 -3.4e+38 -3.4e+38 -3.4e+38 -3.4e+38 -3.4e+38 -3.4e+38 -3.4e+38 -3.4e+38 -3.4e+38 -3.4e+38 -3.4e+38 -3.4e+38 -3.4e+38 -3.4e+38 -3.4e+38 -3.4e+38 -3.4e+38 -3.4e+38 -3.4e+38 -3.4e+38 -3.4e+38 -3.4e+38 -3.4e+38 -3.4e+38 -3.4e+38 -3.4e+38 -3.4e+38 -3.4e+38 -3.4e+38 -3.4e+38 -3.4e+38 -3.4e+38 -3.4e+38 -3.4e+38 -3.4e+38 -3.4e+38 -3.4e+38 -3.4e+38 -3.4e+38 -3.4e+38 -3.4e+38 -3.4e+38 -3.4e+38 -3.4e+38
3382.4267578125 3379.34155273438 3376.095703125 3372.1708984375 3368.11279296875 3364.37475585938 3360.22192382812 3355.56396484375 3351.33984375 3347.72729492188 3344.029296875 3340.751953125 3338.326171875 3336.18798828125 3334.25952148438 3332.9404296875 3331.7998046875 3330.73266601562 3329.43872070312 3327.97680664062 3326.52880859375 3325.06298828125 3323.4541015625 3321.87377929688 3320.46337890625 3318.91625976562 3317.00024414062 3315.0712890625 3313.39721679688 3311.65356445312 3309.8115234375 3308.07934570312 3306.34057617188 3303.89233398438 3300.86669921875 3298.04858398438 3295.56396484375 3292.630859375 3289.37573242188 3286.18017578125 3283.03247070312 3279.77465820312 3276.638671875 3273.61987304688 3270.77734375 3268.22338867188 3266.12036132812 3264.28149414062 3262.33056640625 3260.03564453125 3257.46459960938 3254.4677734375 3250.3623046875 3245.37231445312 3239.77099609375 3234.75805664062 3232.26635742188 3233.08837890625 3235.1796875 3236.98583984375 3238.02807617188 3237.78002929688 3236.73461914062 3235.27783203125 3233.31030273438 3231.00732421875 3228.68994140625 3226.23754882812 3223.576171875 3221.0029296875 3218.69311523438 3216.28930664062 3213.8857421875 3211.75 3209.6923828125 3207.29418945312 3204.97973632812 3203.71826171875 3203.34228515625 3203.17211914062 3202.42700195312 3201.8955078125 3202.52783203125 3204.71923828125 3207.32421875 3209.40234375 3211.43408203125 3213.7490234375 3216.30493164062 3218.75415039062 3221.62158203125 3225.20678710938 3229.14306640625 3232.89208984375 3236.81030273438 3241.125 3246.4833984375 3252.947265625 3258.8056640625 3262.95434570312 3267.00268554688 3271.07397460938 3275.67114257812 3280.11181640625 3284.55395507812 3289.9267578125 3295.59423828125 3300.73193359375 3305.05932617188 3309.0048828125 3312.71630859375 3316.04541015625 3318.76220703125 3321.24951171875 3323.48168945312 3325.50415039062 3327.4150390625 3330.1103515625 3333.66430664062 3337.39575195312 3341.02612304688 3344.544921875 3347.71899414062 3350.66455078125 3353.603515625 3356.91650390625 3360.17626953125 3363.0078125 3365.69189453125 3367.96264648438 3369.8740234375 3371.69189453125 3373.80859375 3376.06103515625 3377.99536132812 3379.57861328125 3381.318359375 3383.21044921875 3385.1533203125 3387.04077148438 3389.2255859375 3392.03955078125 3395.31079101562 3398.736328125 3402.32983398438 3405.6240234375 3408.509765625 3411.5888671875 3415.2568359375 3419.39575195312 3423.48754882812 3427.82348632812 3432.30493164062 3436.669921875 3441.11889648438 3446.58178710938 3452.06616210938 3456.73681640625 3460.96997070312 3465.64379882812 3470.41918945312 3474.45751953125 3477.75756835938 3480.89282226562 3483.91674804688 3486.40649414062 3488.68090820312 3490.75415039062 3492.49609375 3493.72485351562 3494.78076171875 3495.7734375 -3.4e+38 -3.4e+38 -3.4e+38 -3.4e+38 -3.4e+38 -3.4e+38 -3.4e+38 -3.4e+38 -3.4e+38 -3.4e+38 -3.4e+38 -3.4e+38 -3.4e+38 -3.4e+38 -3.4e+38 -3.4e+38 -3.4e+38 -3.4e+38 -3.4e+38 -3.4e+38 -3.4e+38 -3.4e+38 -3.4e+38 -3.4e+38 -3.4e+38 -3.4e+38 -3.4e+38 -3.4e+38 -3.4e+38 -3.4e+38 -3.4e+38 -3.4e+38 -3.4e+38 -3.4e+38 -3.4e+38 -3.4e+38 -3.4e+38 -3.4e+38 -3.4e+38 -3.4e+38 -3.4e+38 -3.4e+38 -3.4e+38 -3.4e+38 -3.4e+38 -3.4e+38 -3.4e+38 -3.4e+38 -3.4e+38 -3.4e+38 -3.4e+38 -3.4e+38 -3.4e+38 -3.4e+38 -3.4e+38 -3.4e+38 -3.4e+38 -3.4e+38 -3.4e+38 -3.4e+38 -3.4e+38
3383.82836914062 3380.7216796875 3377.47412109375 3373.2978515625 3368.98852539062 3365.07397460938 3360.65747070312 3355.84033203125 3351.529296875 3347.77270507812 3344.03637695312 3340.99633789062 3339.103515625 3337.56005859375 3335.93798828125 3334.59594726562 3333.45458984375 3332.41137695312 3331.07495117188 3329.49267578125 3327.95239257812 3326.42456054688 3324.71118164062 3323.029296875 3321.60424804688 3320.06298828125 3318.23657226562 3316.3505859375 3314.61450195312 3312.755859375 3310.81030273438 3309.04541015625 3307.3427734375 3305.01342773438 3301.96337890625 3298.97021484375 3296.29565429688 3293.30981445312 3290.19873046875 3287.20751953125 3284.19921875 3281.31860351562 3278.69946289062 3276.1123046875 3273.390625 3270.71606445312 3268.47631835938 3266.60009765625 3264.61596679688 3262.298828125 3259.81201171875 3257.02124023438 3252.7626953125 3247.53393554688 3242.19653320312 3237.17602539062 3234.3408203125 3235.16381835938 3237.5341796875 3239.66381835938 3241.24438476562 3241.46655273438 3240.56030273438 3238.9833984375 3236.8466796875 3234.583984375 3232.37719726562 3229.76000976562 3226.8671875 3224.36499023438 3222.27124023438 3219.94873046875 3217.48754882812 3215.26928710938 3213.25463867188 3211.017578125 3208.720703125 3206.86328125 3205.515625 3205.01171875 3204.0185546875 3203.17407226562 3203.32080078125 3205.33447265625 3207.61596679688 3209.45703125 3211.32788085938 3213.62841796875 3216.32836914062 3218.94262695312 3221.85327148438 3225.22875976562 3229.00732421875 3232.6162109375 3236.42602539062 3240.62451171875 3245.63256835938 3251.57348632812 3257.4892578125 3261.70190429688 3265.46142578125 3269.34033203125 3273.32104492188 3277.05737304688 3280.73657226562 3285.61279296875 3291.81518554688 3297.33520507812 3301.77905273438 3305.93798828125 3309.71069335938 3313.12060546875 3316.09350585938 3318.81518554688 3321.00830078125 3323.06420898438 3325.24389648438 3328.12939453125 3331.68212890625 3335.58715820312 3339.51684570312 3343.26025390625 3346.40356445312 3349.28198242188 3352.3955078125 3355.73364257812 3358.76123046875 3361.43823242188 3364.05737304688 3366.404296875 3368.39916992188 3370.13232421875 3372.07983398438 3374.13623046875 3376.00268554688 3377.67456054688 3379.48364257812 3381.47973632812 3383.67846679688 3385.94213867188 3388.4609375 3391.306640625 3394.44995117188 3397.93505859375 3401.78515625 3405.234375 3408.14892578125 3411.26928710938 3414.97485351562 3419.15625 3423.36474609375 3427.84936523438 3432.365234375 3436.6884765625 3441.13793945312 3446.70190429688 3452.2177734375 3456.83129882812 3461.03881835938 3465.72314453125 3470.5390625 3474.53491210938 3477.8896484375 3481.158203125 3484.21435546875 3486.74975585938 3489.05688476562 3491.154296875 3493.0283203125 3494.45336914062 3495.73657226562 3496.82763671875 3497.6748046875 -3.4e+38 -3.4e+38 -3.4e+38 -3.4e+38 -3.4e+38 -3.4e+38 -3.4e+38 -3.4e+38 -3.4e+38 -3.4e+38 -3.4e+38 -3.4e+38 -3.4e+38 -3.4e+38 -3.4e+38 -3.4e+38 -3.4e+38 -3.4e+38 -3.4e+38 -3.4e+38 -3.4e+38 -3.4e+38 -3.4e+38 -3.4e+38 -3.4e+38 -3.4e+38 -3.4e+38 -3.4e+38 -3.4e+38 -3.4e+38 -3.4e+38 -3.4e+38 -3.4e+38 -3.4e+38 -3.4e+38 -3.4e+38 -3.4e+38 -3.4e+38 -3.4e+38 -3.4e+38 -3.4e+38 -3.4e+38 -3.4e+38 -3.4e+38 -3.4e+38 -3.4e+38 -3.4e+38 -3.4e+38 -3.4e+38 -3.4e+38 -3.4e+38 -3.4e+38 -3.4e+38 -3.4e+38 -3.4e+38 -3.4e+38 -3.4e+38 -3.4e+38 -3.4e+38 -3.4e+38
3385.18774414062 3381.99755859375 3378.66455078125 3374.34692382812 3369.76806640625 3365.63989257812 3361.10668945312 3356.14990234375 3351.82861328125 3348.08544921875 3344.23852539062 3341.451171875 3339.99389648438 3338.77124023438 3337.44506835938 3336.20703125 3335.04956054688 3333.91333007812 3332.46899414062 3330.81982421875 3329.22192382812 3327.64721679688 3325.88647460938 3324.15576171875 3322.65063476562 3321.10717773438 3319.32495117188 3317.38989257812 3315.55029296875 3313.65112304688 3311.6298828125 3309.71655273438 3307.92504882812 3305.591796875 3302.61328125 3299.5947265625 3296.72021484375 3293.60522460938 3290.81396484375 3288.4462890625 3285.9873046875 3283.50024414062 3281.15966796875 3278.85717773438 3276.3232421875 3273.57666015625 3271.09912109375 3269.056640625 3266.95629882812 3264.52758789062 3261.90576171875 3259.19458007812 3255.02416992188 3249.40795898438 3244.2998046875 3240.39575195312 3237.88305664062 3237.97509765625 3240.14233398438 3242.61791992188 3244.41455078125 3244.87377929688 3244.26440429688 3242.76171875 3240.4560546875 3238.01220703125 3235.70776367188 3233.0693359375 3230.13256835938 3227.58520507812 3225.50146484375 3223.29467773438 3220.95776367188 3218.77709960938 3216.6083984375 3214.24389648438 3211.9833984375 3209.89038085938 3207.87182617188 3207.16064453125 3205.89819335938 3204.60498046875 3204.28100585938 3205.87768554688 3207.68359375 3209.3427734375 3211.16845703125 3213.37158203125 3216.01318359375 3218.59545898438 3221.46020507812 3224.75170898438 3228.27319335938 3231.75830078125 3235.53515625 3239.5654296875 3243.9375 3249.22900390625 3255.47290039062 3259.892578125 3263.31665039062 3266.87084960938 3270.6259765625 3274.17358398438 3277.41577148438 3281.51391601562 3287.408203125 3293.5205078125 3298.22241210938 3302.62939453125 3306.64868164062 3310.10327148438 3313.16943359375 3316.08520507812 3318.39965820312 3320.47387695312 3322.74096679688 3325.89501953125 3329.63256835938 3333.4560546875 3337.34155273438 3341.39599609375 3344.84448242188 3347.75244140625 3350.95458984375 3354.38354492188 3357.24853515625 3359.66870117188 3362.14575195312 3364.5791015625 3366.71362304688 3368.43725585938 3370.14697265625 3371.98852539062 3373.85717773438 3375.611328125 3377.60571289062 3379.91186523438 3382.38916015625 3384.873046875 3387.63305664062 3390.52880859375 3393.58032226562 3397.14868164062 3401.20776367188 3404.83666992188 3407.78784179688 3410.95703125 3414.69091796875 3418.9033203125 3423.24389648438 3427.8515625 3432.39208984375 3436.72045898438 3441.16723632812 3446.80395507812 3452.39306640625 3456.94799804688 3461.12939453125 3465.83544921875 3470.6611328125 3474.61743164062 3478.00439453125 3481.3623046875 3484.46948242188 3487.03466796875 3489.36181640625 3491.5068359375 3493.48217773438 3495.0634765625 3496.54150390625 3497.78198242188 3498.70458984375 -3.4e+38 -3.4e+38 -3.4e+38 -3.4e+38 -3.4e+38 -3.4e+38 -3.4e+38 -3.4e+38 -3.4e+38 -3.4e+38 -3.4e+38 -3.4e+38 -3.4e+38 -3.4e+38 -3.4e+38 -3.4e+38 -3.4e+38 -3.4e+38 -3.4e+38 -3.4e+38 -3.4e+38 -3.4e+38 -3.4e+38 -3.4e+38 -3.4e+38 -3.4e+38 -3.4e+38 -3.4e+38 -3.4e+38 -3.4e+38 -3.4e+38 -3.4e+38 -3.4e+38 -3.4e+38 -3.4e+38 -3.4e+38 -3.4e+38 -3.4e+38 -3.4e+38 -3.4e+38 -3.4e+38 -3.4e+38 -3.4e+38 -3.4e+38 -3.4e+38 -3.4e+38 -3.4e+38 -3.4e+38 -3.4e+38 -3.4e+38 -3.4e+38 -3.4e+38 -3.4e+38 -3.4e+38 -3.4e+38 -3.4e+38 -3.4e+38 -3.4e+38 -3.4e+38 -3.4e+38
3386.42749023438 3383.2021484375 3379.765625 3375.36938476562 3370.5595703125 3366.15502929688 3361.4306640625 3356.4375 3352.2451171875 3348.84423828125 3345.30908203125 3342.68774414062 3341.3232421875 3340.28344726562 3339.05712890625 3337.81665039062 3336.60546875 3335.32250976562 3333.77905273438 3332.08227539062 3330.41333007812 3328.80712890625 3327.04272460938 3325.27319335938 3323.68188476562 3322.01904296875 3320.13549804688 3318.1357421875 3316.28442382812 3314.3935546875 3312.36938476562 3310.2841796875 3308.244140625 3305.7802734375 3302.9267578125 3300.07006835938 3297.041015625 3293.86328125 3291.56494140625 3289.92822265625 3288.13500976562 3285.88037109375 3283.65747070312 3281.59106445312 3279.24975585938 3276.52685546875 3273.89721679688 3271.68334960938 3269.369140625 3266.77099609375 3263.98999023438 3261.08569335938 3256.97802734375 3251.11401367188 3245.70288085938 3242.70849609375 3241.20288085938 3240.98364257812 3242.56396484375 3244.99047851562 3246.82861328125 3247.25439453125 3246.86474609375 3245.8134765625 3243.87475585938 3241.38549804688 3238.86547851562 3236.169921875 3233.23657226562 3230.6064453125 3228.52563476562 3226.35571289062 3224.11450195312 3222.0224609375 3219.87377929688 3217.39868164062 3214.95385742188 3212.70263671875 3210.55029296875 3209.44775390625 3208.314453125 3207.02172851562 3206.05834960938 3206.29150390625 3207.49658203125 3208.97631835938 3210.7724609375 3212.90942382812 3215.44311523438 3217.9765625 3220.71826171875 3223.83276367188 3227.205078125 3230.74096679688 3234.5078125 3238.25146484375 3241.97436523438 3246.4599609375 3252.326171875 3257.17944335938 3260.63061523438 3263.8759765625 3267.55712890625 3271.19653320312 3274.37841796875 3277.92163085938 3282.95629882812 3289.17651367188 3294.578125 3299.310546875 3303.6748046875 3307.30981445312 3310.353515625 3313.24438476562 3315.70190429688 3317.69262695312 3319.81640625 3323.1884765625 3327.3095703125 3331.16088867188 3334.97192382812 3339.18579101562 3342.9873046875 3345.93579101562 3348.99291992188 3352.4541015625 3355.48046875 3357.8359375 3360.20654296875 3362.6142578125 3364.7783203125 3366.47314453125 3367.970703125 3369.59301757812 3371.43090820312 3373.466796875 3375.97412109375 3378.73706054688 3381.36010742188 3383.87158203125 3386.7802734375 3389.716796875 3392.68798828125 3396.34228515625 3400.58032226562 3404.40747070312 3407.44555664062 3410.69555664062 3414.46508789062 3418.68139648438 3423.10888671875 3427.83325195312 3432.40600585938 3436.72021484375 3441.19360351562 3446.8984375 3452.5595703125 3457.06201171875 3461.20727539062 3465.93603515625 3470.78833007812 3474.71313476562 3478.14233398438 3481.53051757812 3484.67065429688 3487.24340820312 3489.58349609375 3491.759765625 3493.77124023438 3495.49731445312 3497.18188476562 3498.64672851562 3499.74877929688 -3.4e+38 -3.4e+38 -3.4e+38 -3.4e+38 -3.4e+38 -3.4e+38 -3.4e+38 -3.4e+38 -3.4e+38 -3.4e+38 -3.4e+38 -3.4e+38 -3.4e+38 -3.4e+38 -3.4e+38 -3.4e+38 -3.4e+38 -3.4e+38 -3.4e+38 -3.4e+38 -3.4e+38 -3.4e+38 -3.4e+38 -3.4e+38 -3.4e+38 -3.4e+38 -3.4e+38 -3.4e+38 -3.4e+38 -3.4e+38 -3.4e+38 -3.4e+38 -3.4e+38 -3.4e+38 -3.4e+38 -3.4e+38 -3.4e+38 -3.4e+38 -3.4e+38 -3.4e+38 -3.4e+38 -3.4e+38 -3.4e+38 -3.4e+38 -3.4e+38 -3.4e+38 -3.4e+38 -3.4e+38 -3.4e+38 -3.4e+38 -3.4e+38 -3.4e+38 -3.4e+38 -3.4e+38 -3.4e+38 -3.4e+38 -3.4e+38 -3.4e+38 -3.4e+38 -3.4e+38
3387.5361328125 3384.287109375 3380.90673828125 3376.51611328125 3371.40234375 3366.75341796875 3361.8740234375 3356.78540039062 3352.78662109375 3349.9619140625 3347.01147460938 3344.5439453125 3343.095703125 3342.0068359375 3340.82055664062 3339.50805664062 3338.20190429688 3336.82202148438 3335.1103515625 3333.32641601562 3331.6533203125 3329.9697265625 3328.13647460938 3326.3134765625 3324.7041015625 3322.94116210938 3320.89916992188 3318.80639648438 3316.93994140625 3315.0654296875 3313.1650390625 3310.97338867188 3308.52319335938 3305.83862304688 3303.3310546875 3301.02124023438 3298.21655273438 3295.21752929688 3293.22045898438 3291.89916992188 3290.35864257812 3288.23681640625 3286.06762695312 3284.11889648438 3281.9951171875 3279.38012695312 3276.67358398438 3274.31127929688 3271.80395507812 3269.1005859375 3266.19604492188 3262.92553710938 3258.75561523438 3253.07836914062 3247.21606445312 3243.80688476562 3242.6240234375 3243.0498046875 3244.6337890625 3246.84985351562 3248.7109375 3249.24731445312 3248.95239257812 3248.18188476562 3246.72387695312 3244.51098632812 3242.07641601562 3239.3603515625 3236.40283203125 3233.71142578125 3231.50170898438 3229.27954101562 3227.10864257812 3225.05078125 3222.96044921875 3220.5185546875 3217.97119140625 3215.65991210938 3213.6103515625 3212.23315429688 3210.85009765625 3209.46411132812 3208.1962890625 3207.18115234375 3207.35546875 3208.466796875 3210.11572265625 3212.25756835938 3214.66137695312 3217.03784179688 3219.6181640625 3222.54174804688 3225.90283203125 3229.36010742188 3233.19140625 3236.77954101562 3240.17114257812 3244.0966796875 3249.07153320312 3253.8232421875 3257.37573242188 3260.58959960938 3264.23364257812 3267.93579101562 3271.259765625 3274.85815429688 3279.14575195312 3284.72583007812 3291.04541015625 3296.46850585938 3301.19067382812 3305.04272460938 3308.07373046875 3310.83349609375 3313.251953125 3315.16552734375 3317.05395507812 3320.19262695312 3324.57885742188 3328.66088867188 3332.48510742188 3336.61010742188 3340.52514648438 3343.50366210938 3346.47998046875 3350.02783203125 3353.42041015625 3355.99731445312 3358.29272460938 3360.55004882812 3362.53002929688 3364.12060546875 3365.5380859375 3366.98803710938 3368.74536132812 3371.14379882812 3374.3583984375 3377.68408203125 3380.44165039062 3382.94116210938 3385.90502929688 3388.884765625 3391.81079101562 3395.49682617188 3399.90478515625 3403.93774414062 3407.09252929688 3410.46118164062 3414.35083007812 3418.58447265625 3423.00903320312 3427.7958984375 3432.40454101562 3436.69360351562 3441.20434570312 3447.03198242188 3452.72045898438 3457.12939453125 3461.24462890625 3466.00927734375 3470.89819335938 3474.84838867188 3478.3076171875 3481.70263671875 3484.87817382812 3487.46264648438 3489.80737304688 3492.03173828125 3494.10595703125 3495.92822265625 3497.82080078125 3499.54565429688 3500.72509765625 -3.4e+38 -3.4e+38 -3.4e+38 -3.4e+38 -3.4e+38 -3.4e+38 -3.4e+38 -3.4e+38 -3.4e+38 -3.4e+38 -3.4e+38 -3.4e+38 -3.4e+38 -3.4e+38 -3.4e+38 -3.4e+38 -3.4e+38 -3.4e+38 -3.4e+38 -3.4e+38 -3.4e+38 -3.4e+38 -3.4e+38 -3.4e+38 -3.4e+38 -3.4e+38 -3.4e+38 -3.4e+38 -3.4e+38 -3.4e+38 -3.4e+38 -3.4e+38 -3.4e+38 -3.4e+38 -3.4e+38 -3.4e+38 -3.4e+38 -3.4e+38 -3.4e+38 -3.4e+38 -3.4e+38 -3.4e+38 -3.4e+38 -3.4e+38 -3.4e+38 -3.4e+38 -3.4e+38 -3.4e+38 -3.4e+38 -3.4e+38 -3.4e+38 -3.4e+38 -3.4e+38 -3.4e+38 -3.4e+38 -3.4e+38 -3.4e+38 -3.4e+38 -3.4e+38 -3.4e+38
3388.529296875 3385.34375 3382.0439453125 3377.69091796875 3372.34033203125 3367.42553710938 3362.4541015625 3357.37622070312 3353.5322265625 3351.16284179688 3348.8037109375 3346.59350585938 3345.0517578125 3343.8544921875 3342.58178710938 3341.15747070312 3339.79541015625 3338.38598632812 3336.55322265625 3334.59155273438 3332.92236328125 3331.12915039062 3329.10375976562 3327.25439453125 3325.70239257812 3323.9814453125 3321.8193359375 3319.49536132812 3317.50561523438 3315.77856445312 3314.1435546875 3311.9970703125 3309.28076171875 3306.51293945312 3304.39331054688 3302.689453125 3300.609375 3298.05029296875 3295.90112304688 3294.38549804688 3292.693359375 3290.57592773438 3288.46655273438 3286.51196289062 3284.42358398438 3281.93334960938 3279.27734375 3276.82202148438 3274.17578125 3271.41552734375 3268.431640625 3264.97607421875 3260.6572265625 3255.1328125 3248.89794921875 3244.65209960938 3243.24658203125 3244.15869140625 3246.2646484375 3248.5791015625 3250.62939453125 3251.61669921875 3251.6201171875 3250.921875 3249.50366210938 3247.54565429688 3245.29052734375 3242.60620117188 3239.701171875 3237.00561523438 3234.62353515625 3232.19067382812 3230.00390625 3228.05004882812 3226.00024414062 3223.5732421875 3221.11059570312 3219.00024414062 3216.9462890625 3215.3916015625 3213.7421875 3212.14868164062 3210.572265625 3208.78271484375 3207.783203125 3207.96484375 3209.22387695312 3211.50463867188 3213.85302734375 3216.01342773438 3218.43310546875 3221.15747070312 3224.27783203125 3227.55590820312 3231.28637695312 3234.78759765625 3238.02661132812 3241.4921875 3245.65771484375 3250.06616210938 3253.68310546875 3256.93774414062 3260.58349609375 3264.49243164062 3267.98779296875 3272.01782226562 3277.13427734375 3282.65966796875 3288.74291992188 3294.5068359375 3299.1943359375 3303.1298828125 3306.17431640625 3308.84741210938 3311.142578125 3313.04956054688 3314.91796875 3317.54272460938 3321.32836914062 3325.47021484375 3329.48266601562 3333.58178710938 3337.43017578125 3340.5263671875 3343.58984375 3347.15112304688 3350.82861328125 3353.8134765625 3356.33715820312 3358.47875976562 3360.18603515625 3361.615234375 3363.05029296875 3364.529296875 3366.26635742188 3368.734375 3372.43188476562 3376.44213867188 3379.49365234375 3382.056640625 3384.98071289062 3388.009765625 3390.96044921875 3394.63671875 3399.17602539062 3403.4326171875 3406.7578125 3410.2607421875 3414.25048828125 3418.501953125 3422.892578125 3427.69580078125 3432.3359375 3436.64306640625 3441.212890625 3447.15795898438 3452.88061523438 3457.19873046875 3461.28076171875 3466.08178710938 3470.9990234375 3474.97973632812 3478.48608398438 3481.90576171875 3485.06567382812 3487.646484375 3490.06591796875 3492.4228515625 3494.58447265625 3496.45263671875 3498.43823242188 3500.33129882812 3501.45825195312 -3.4e+38 -3.4e+38 -3.4e+38 -3.4e+38 -3.4e+38 -3.4e+38 -3.4e+38 -3.4e+38 -3.4e+38 -3.4e+38 -3.4e+38 -3.4e+38 -3.4e+38 -3.4e+38 -3.4e+38 -3.4e+38 -3.4e+38 -3.4e+38 -3.4e+38 -3.4e+38 -3.4e+38 -3.4e+38 -3.4e+38 -3.4e+38 -3.4e+38 -3.4e+38 -3.4e+38 -3.4e+38 -3.4e+38 -3.4e+38 -3.4e+38 -3.4e+38 -3.4e+38 -3.4e+38 -3.4e+38 -3.4e+38 -3.4e+38 -3.4e+38 -3.4e+38 -3.4e+38 -3.4e+38 -3.4e+38 -3.4e+38 -3.4e+38 -3.4e+38 -3.4e+38 -3.4e+38 -3.4e+38 -3.4e+38 -3.4e+38 -3.4e+38 -3.4e+38 -3.4e+38 -3.4e+38 -3.4e+38 -3.4e+38 -3.4e+38 -3.4e+38 -3.4e+38 -3.4e+38
3389.38232421875 3386.25317382812 3382.99487304688 3378.7294921875 3373.31298828125 3368.14331054688 3363.16186523438 3358.22705078125 3354.5400390625 3352.435546875 3350.4619140625 3348.48510742188 3346.92602539062 3345.666015625 3344.32006835938 3342.86181640625 3341.46166992188 3339.99462890625 3338.080078125 3336.0263671875 3334.21557617188 3332.26293945312 3330.0849609375 3328.19213867188 3326.75561523438 3325.1962890625 3323.05786132812 3320.58618164062 3318.51489257812 3316.88793945312 3315.44409179688 3313.58740234375 3311.15209960938 3308.53955078125 3306.51977539062 3304.97290039062 3303.3896484375 3301.28002929688 3299.03271484375 3297.20581054688 3295.25512695312 3293.03271484375 3290.87353515625 3288.86572265625 3286.65405273438 3284.1640625 3281.64721679688 3279.20849609375 3276.4208984375 3273.48388671875 3270.45483398438 3267.00244140625 3262.43872070312 3256.85375976562 3250.80810546875 3245.97778320312 3244.12768554688 3245.42626953125 3247.9873046875 3250.59814453125 3252.83715820312 3254.1513671875 3254.56909179688 3254.15112304688 3252.73193359375 3250.71240234375 3248.47680664062 3245.87548828125 3243.0947265625 3240.431640625 3238.00024414062 3235.43188476562 3233.03466796875 3231.03393554688 3229.021484375 3226.65356445312 3224.3662109375 3222.46655273438 3220.57202148438 3218.94750976562 3217.24340820312 3215.35766601562 3213.39721679688 3211.28662109375 3209.58227539062 3208.86352539062 3209.25146484375 3210.91967773438 3213.03686523438 3215.01293945312 3217.34399414062 3219.77783203125 3222.38427734375 3225.37866210938 3228.91845703125 3232.43115234375 3235.59326171875 3238.7705078125 3242.48608398438 3246.42602539062 3250.0146484375 3253.42041015625 3256.79516601562 3260.89599609375 3265.5927734375 3270.43896484375 3276.00708007812 3281.70971679688 3287.28515625 3292.94067382812 3297.53247070312 3301.259765625 3304.4111328125 3307.21875 3309.43383789062 3311.20825195312 3312.98510742188 3315.25415039062 3318.21533203125 3321.84741210938 3325.99633789062 3330.31787109375 3334.1748046875 3337.3408203125 3340.45532226562 3343.89526367188 3347.55200195312 3350.88061523438 3353.99951171875 3356.3466796875 3357.88549804688 3359.19018554688 3360.7041015625 3362.384765625 3364.22314453125 3366.54370117188 3370.35009765625 3374.93701171875 3378.39013671875 3381.19604492188 3384.08959960938 3387.13671875 3390.08056640625 3393.72729492188 3398.38623046875 3402.83349609375 3406.390625 3410.07934570312 3414.1484375 3418.41796875 3422.72021484375 3427.48364257812 3432.22436523438 3436.58813476562 3441.22973632812 3447.30688476562 3453.07373046875 3457.29638671875 3461.37280273438 3466.19287109375 3471.08422851562 3475.06591796875 3478.61450195312 3482.07495117188 3485.25341796875 3487.8544921875 3490.33837890625 3492.71313476562 3494.86645507812 3496.77587890625 3498.84423828125 3500.76879882812 3501.89770507812 -3.4e+38 -3.4e+38 -3.4e+38 -3.4e+38 -3.4e+38 -3.4e+38 -3.4e+38 -3.4e+38 -3.4e+38 -3.4e+38 -3.4e+38 -3.4e+38 -3.4e+38 -3.4e+38 -3.4e+38 -3.4e+38 -3.4e+38 -3.4e+38 -3.4e+38 -3.4e+38 -3.4e+38 -3.4e+38 -3.4e+38 -3.4e+38 -3.4e+38 -3.4e+38 -3.4e+38 -3.4e+38 -3.4e+38 -3.4e+38 -3.4e+38 -3.4e+38 -3.4e+38 -3.4e+38 -3.4e+38 -3.4e+38 -3.4e+38 -3.4e+38 -3.4e+38 -3.4e+38 -3.4e+38 -3.4e+38 -3.4e+38 -3.4e+38 -3.4e+38 -3.4e+38 -3.4e+38 -3.4e+38 -3.4e+38 -3.4e+38 -3.4e+38 -3.4e+38 -3.4e+38 -3.4e+38 -3.4e+38 -3.4e+38 -3.4e+38 -3.4e+38 -3.4e+38 -3.4e+38
3390.19995117188 3387.0625 3383.69311523438 3379.3974609375 3374.06909179688 3368.81811523438 3363.98901367188 3359.5693359375 3356.05249023438 3353.89331054688 3352.04418945312 3350.24243164062 3348.71337890625 3347.38110351562 3345.97607421875 3344.53979492188 3343.11865234375 3341.55737304688 3339.58056640625 3337.50512695312 3335.583984375 3333.4970703125 3331.23364257812 3329.32006835938 3328.03100585938 3326.73071289062 3324.92309570312 3322.63500976562 3320.57495117188 3318.80395507812 3317.24340820312 3315.64697265625 3313.79077148438 3311.51586914062 3309.35668945312 3307.73095703125 3306.185546875 3304.29541015625 3302.2421875 3300.29614257812 3298.17822265625 3295.74462890625 3293.33862304688 3291.15600585938 3288.78979492188 3286.2548828125 3283.794921875 3281.40112304688 3278.53442382812 3275.39599609375 3272.3095703125 3268.99975585938 3264.05541992188 3258.142578125 3252.69116210938 3247.98852539062 3245.86157226562 3247.2880859375 3250.04809570312 3252.97021484375 3255.45947265625 3256.7470703125 3257.30053710938 3257.21948242188 3256.0126953125 3253.97387695312 3251.7958984375 3249.27099609375 3246.57543945312 3243.9619140625 3241.53344726562 3238.90307617188 3236.361328125 3234.20825195312 3232.19018554688 3229.87670898438 3227.63061523438 3225.76318359375 3224.01806640625 3222.47705078125 3220.57421875 3218.5263671875 3216.466796875 3214.25244140625 3212.32495117188 3211.19897460938 3210.64038085938 3210.82104492188 3212.17846679688 3214.1142578125 3216.21923828125 3218.33520507812 3220.43994140625 3223.00073242188 3226.44384765625 3229.94213867188 3232.98095703125 3236.04809570312 3239.6494140625 3243.23803710938 3246.5146484375 3250.21166992188 3254.27490234375 3258.73291015625 3264.01733398438 3269.53076171875 3275.25952148438 3280.9912109375 3286.2392578125 3291.66430664062 3296.14721679688 3299.57788085938 3302.68237304688 3305.56689453125 3307.77075195312 3309.45141601562 3311.08740234375 3313.16821289062 3315.6328125 3318.482421875 3322.33447265625 3326.88916015625 3330.96899414062 3334.19873046875 3337.30029296875 3340.54272460938 3343.869140625 3347.14794921875 3350.6669921875 3353.5341796875 3355.359375 3356.76220703125 3358.373046875 3360.24169921875 3362.34301757812 3364.72778320312 3368.43725585938 3373.16235351562 3377.06494140625 3380.29028320312 3383.24438476562 3386.2548828125 3389.14526367188 3392.74584960938 3397.52270507812 3402.1611328125 3405.970703125 3409.88549804688 3414.068359375 3418.29541015625 3422.52563476562 3427.28051757812 3432.12622070312 3436.55200195312 3441.2890625 3447.4638671875 3453.25170898438 3457.4150390625 3461.49926757812 3466.29833984375 3471.18725585938 3475.20385742188 3478.78100585938 3482.25073242188 3485.44311523438 3488.06298828125 3490.58642578125 3492.962890625 3495.12768554688 3497.08642578125 3499.21655273438 3501.10522460938 3502.16674804688 3502.8203125 -3.4e+38 -3.4e+38 -3.4e+38 -3.4e+38 -3.4e+38 -3.4e+38 -3.4e+38 -3.4e+38 -3.4e+38 -3.4e+38 -3.4e+38 -3.4e+38 -3.4e+38 -3.4e+38 -3.4e+38 -3.4e+38 -3.4e+38 -3.4e+38 -3.4e+38 -3.4e+38 -3.4e+38 -3.4e+38 -3.4e+38 -3.4e+38 -3.4e+38 -3.4e+38 -3.4e+38 -3.4e+38 -3.4e+38 -3.4e+38 -3.4e+38 -3.4e+38 -3.4e+38 -3.4e+38 -3.4e+38 -3.4e+38 -3.4e+38 -3.4e+38 -3.4e+38 -3.4e+38 -3.4e+38 -3.4e+38 -3.4e+38 -3.4e+38 -3.4e+38 -3.4e+38 -3.4e+38 -3.4e+38 -3.4e+38 -3.4e+38 -3.4e+38 -3.4e+38 -3.4e+38 -3.4e+38 -3.4e+38 -3.4e+38 -3.4e+38 -3.4e+38 -3.4e+38
3390.990234375 3387.78247070312 3384.24267578125 3379.85913085938 3374.65991210938 3369.42724609375 3364.79833984375 3360.99829101562 3357.82373046875 3355.60595703125 3353.65087890625 3351.89282226562 3350.40454101562 3349.07104492188 3347.5859375 3346.060546875 3344.60986328125 3343.015625 3341.08276367188 3339.03076171875 3337.13061523438 3335.0419921875 3332.78881835938 3330.91821289062 3329.72705078125 3328.666015625 3327.28295898438 3325.44213867188 3323.50366210938 3321.50439453125 3319.6611328125 3318.04077148438 3316.44287109375 3314.494140625 3312.33276367188 3310.60766601562 3308.9365234375 3307.1494140625 3305.37646484375 3303.55639648438 3301.39477539062 3298.76513671875 3295.97143554688 3293.45922851562 3290.90771484375 3288.2890625 3285.7529296875 3283.35620117188 3280.513671875 3277.2783203125 3274.0654296875 3270.76977539062 3265.59375 3259.2587890625 3254.44140625 3251.1396484375 3249.63403320312 3250.16088867188 3252.30346679688 3255.18115234375 3257.94897460938 3259.4091796875 3259.9326171875 3259.86499023438 3258.84033203125 3257.17211914062 3255.28857421875 3252.853515625 3250.14794921875 3247.51416015625 3245.00952148438 3242.291015625 3239.71533203125 3237.41943359375 3235.29638671875 3233.14282226562 3230.93725585938 3228.91821289062 3226.98657226562 3225.32885742188 3223.41333007812 3221.44775390625 3219.42041015625 3217.185546875 3215.28735351562 3213.85693359375 3212.59643554688 3211.88623046875 3212.07861328125 3213.25390625 3215.23559570312 3217.08764648438 3218.81298828125 3220.853515625 3223.87768554688 3227.41943359375 3230.46728515625 3233.4677734375 3237.11962890625 3240.884765625 3244.18872070312 3248.27880859375 3253.09985351562 3257.81884765625 3262.99560546875 3268.78100585938 3274.62866210938 3280.26611328125 3285.29809570312 3290.43896484375 3294.76538085938 3297.92651367188 3300.76489257812 3303.59057617188 3305.84887695312 3307.61108398438 3309.21875 3311.07275390625 3313.19995117188 3315.54736328125 3318.82495117188 3323.23706054688 3327.60961914062 3331.11279296875 3334.18310546875 3337.1640625 3340.09301757812 3342.97924804688 3346.35302734375 3349.623046875 3352.09057617188 3353.95190429688 3355.84350585938 3357.8974609375 3360.31665039062 3363.07836914062 3366.81494140625 3371.37817382812 3375.5927734375 3379.26586914062 3382.396484375 3385.38012695312 3388.20678710938 3391.76098632812 3396.58154296875 3401.43676757812 3405.49829101562 3409.64697265625 3413.99536132812 3418.19482421875 3422.34985351562 3427.091796875 3431.97412109375 3436.47729492188 3441.34204101562 3447.62133789062 3453.40014648438 3457.53295898438 3461.62475585938 3466.40771484375 3471.29125976562 3475.33374023438 3478.96240234375 3482.45971679688 3485.65478515625 3488.287109375 3490.81079101562 3493.24072265625 3495.43505859375 3497.44580078125 3499.57788085938 3501.37939453125 3502.4052734375 3503.10791015625 -3.4e+38 -3.4e+38 -3.4e+38 -3.4e+38 -3.4e+38 -3.4e+38 -3.4e+38 -3.4e+38 -3.4e+38 -3.4e+38 -3.4e+38 -3.4e+38 -3.4e+38 -3.4e+38 -3.4e+38 -3.4e+38 -3.4e+38 -3.4e+38 -3.4e+38 -3.4e+38 -3.4e+38 -3.4e+38 -3.4e+38 -3.4e+38 -3.4e+38 -3.4e+38 -3.4e+38 -3.4e+38 -3.4e+38 -3.4e+38 -3.4e+38 -3.4e+38 -3.4e+38 -3.4e+38 -3.4e+38 -3.4e+38 -3.4e+38 -3.4e+38 -3.4e+38 -3.4e+38 -3.4e+38 -3.4e+38 -3.4e+38 -3.4e+38 -3.4e+38 -3.4e+38 -3.4e+38 -3.4e+38 -3.4e+38 -3.4e+38 -3.4e+38 -3.4e+38 -3.4e+38 -3.4e+38 -3.4e+38 -3.4e+38 -3.4e+38 -3.4e+38 -3.4e+38
3391.79736328125 3388.48315429688 3384.74658203125 3380.32568359375 3375.19384765625 3369.93432617188 3365.42919921875 3362.21923828125 3359.52172851562 3357.40649414062 3355.39965820312 3353.53173828125 3352.0048828125 3350.63720703125 3349.09936523438 3347.51489257812 3346.03857421875 3344.474609375 3342.5986328125 3340.61010742188 3338.79663085938 3336.8818359375 3334.87280273438 3333.16088867188 3331.99462890625 3330.98486328125 3329.84594726562 3328.396484375 3326.68188476562 3324.61450195312 3322.60522460938 3320.86108398438 3319.18627929688 3317.27075195312 3315.24584960938 3313.40258789062 3311.58251953125 3309.80126953125 3308.18505859375 3306.6279296875 3304.70239257812 3301.99194335938 3298.85913085938 3295.94799804688 3293.0830078125 3290.3232421875 3287.68017578125 3285.19091796875 3282.27416992188 3278.95825195312 3275.63989257812 3272.20141601562 3267.00146484375 3260.38598632812 3255.94873046875 3254.26831054688 3253.77490234375 3253.4150390625 3254.3212890625 3256.91772460938 3259.93432617188 3261.83862304688 3262.62084960938 3262.51831054688 3261.5830078125 3260.25756835938 3258.6943359375 3256.46875 3253.857421875 3251.240234375 3248.66455078125 3245.69677734375 3242.796875 3240.4580078125 3238.33227539062 3236.1513671875 3234.01416015625 3232.0439453125 3229.92651367188 3228.125 3226.11303710938 3224.13989257812 3222.01513671875 3219.78955078125 3217.89086914062 3216.28735351562 3214.73217773438 3213.61645507812 3213.19555664062 3213.29638671875 3214.41870117188 3216.17358398438 3217.65869140625 3219.17065429688 3221.55908203125 3225.03540039062 3228.21899414062 3231.02197265625 3234.68359375 3239.416015625 3243.56176757812 3247.75634765625 3252.40551757812 3257.31079101562 3262.2724609375 3267.966796875 3273.90380859375 3279.53637695312 3284.35400390625 3289.06494140625 3293.26123046875 3296.31982421875 3298.8720703125 3301.48779296875 3303.7685546875 3305.5986328125 3307.2236328125 3308.77172851562 3310.4736328125 3312.57348632812 3315.52978515625 3319.45288085938 3323.68725585938 3327.45678710938 3330.70654296875 3333.57885742188 3336.29418945312 3338.90698242188 3341.9638671875 3345.24047851562 3348.08666992188 3350.4482421875 3352.87890625 3355.37475585938 3358.01806640625 3361.17358398438 3365.19287109375 3369.65771484375 3374.00146484375 3378.07397460938 3381.54321289062 3384.50854492188 3387.31713867188 3390.7939453125 3395.5341796875 3400.67504882812 3405.00927734375 3409.36669921875 3413.89624023438 3418.09985351562 3422.17456054688 3426.89575195312 3431.83056640625 3436.38818359375 3441.3408203125 3447.76000976562 3453.54565429688 3457.61938476562 3461.74194335938 3466.53564453125 3471.41088867188 3475.43798828125 3479.14038085938 3482.66650390625 3485.85717773438 3488.52563476562 3491.06982421875 3493.53100585938 3495.78881835938 3497.82177734375 3499.93627929688 3501.63745117188 3502.64038085938 3503.38159179688 -3.4e+38 -3.4e+38 -3.4e+38 -3.4e+38 -3.4e+38 -3.4e+38 -3.4e+38 -3.4e+38 -3.4e+38 -3.4e+38 -3.4e+38 -3.4e+38 -3.4e+38 -3.4e+38 -3.4e+38 -3.4e+38 -3.4e+38 -3.4e+38 -3.4e+38 -3.4e+38 -3.4e+38 -3.4e+38 -3.4e+38 -3.4e+38 -3.4e+38 -3.4e+38 -3.4e+38 -3.4e+38 -3.4e+38 -3.4e+38 -3.4e+38 -3.4e+38 -3.4e+38 -3.4e+38 -3.4e+38 -3.4e+38 -3.4e+38 -3.4e+38 -3.4e+38 -3.4e+38 -3.4e+38 -3.4e+38 -3.4e+38 -3.4e+38 -3.4e+38 -3.4e+38 -3.4e+38 -3.4e+38 -3.4e+38 -3.4e+38 -3.4e+38 -3.4e+38 -3.4e+38 -3.4e+38 -3.4e+38 -3.4e+38 -3.4e+38 -3.4e+38 -3.4e+38
3392.5654296875 3389.13623046875 3385.25244140625 3380.77587890625 3375.72338867188 3370.45971679688 3366.00927734375 3363.2548828125 3361.08569335938 3359.15161132812 3357.18896484375 3355.24267578125 3353.59008789062 3352.12719726562 3350.55102539062 3348.98388671875 3347.5380859375 3345.982421875 3344.1240234375 3342.1845703125 3340.46459960938 3338.8046875 3337.20751953125 3335.80883789062 3334.66455078125 3333.55859375 3332.49487304688 3331.18774414062 3329.6728515625 3327.78637695312 3325.76196289062 3323.89575195312 3322.0537109375 3320.00952148438 3317.88159179688 3315.94458007812 3314.109375 3312.27758789062 3310.63159179688 3309.18481445312 3307.50341796875 3305.04907226562 3301.9619140625 3298.78442382812 3295.4375 3292.27172851562 3289.552734375 3286.96484375 3283.8818359375 3280.48266601562 3277.05151367188 3273.39111328125 3268.39013671875 3262.33032226562 3258.13793945312 3256.78393554688 3256.49877929688 3255.74658203125 3255.70166015625 3258.18188476562 3262.15771484375 3264.640625 3265.54125976562 3265.54638671875 3264.88793945312 3263.75146484375 3262.27807617188 3260.17236328125 3257.681640625 3255.16552734375 3252.56103515625 3249.3505859375 3246.02709960938 3243.3603515625 3241.14013671875 3238.9638671875 3236.96264648438 3235.09814453125 3233.04858398438 3231.2197265625 3229.1796875 3226.96752929688 3224.54150390625 3222.1953125 3220.19873046875 3218.59448242188 3216.94287109375 3215.58374023438 3214.86083984375 3214.44213867188 3214.53002929688 3215.490234375 3216.90747070312 3218.2138671875 3220.15014648438 3223.21801757812 3226.44653320312 3229.53295898438 3233.3759765625 3238.33422851562 3242.98315429688 3247.32836914062 3251.841796875 3256.66528320312 3261.32446289062 3266.70629882812 3272.64404296875 3278.41479492188 3283.16870117188 3287.62036132812 3291.81274414062 3294.91088867188 3297.17822265625 3299.45629882812 3301.65698242188 3303.42114257812 3304.90283203125 3306.1513671875 3307.42041015625 3309.1943359375 3312.03637695312 3315.62890625 3319.28955078125 3322.88305664062 3326.4658203125 3329.6240234375 3332.39233398438 3334.98120117188 3337.93505859375 3341.07836914062 3343.96655273438 3346.5576171875 3349.47680664062 3352.63891601562 3355.53173828125 3358.9609375 3363.390625 3367.947265625 3372.29370117188 3376.7177734375 3380.5849609375 3383.60327148438 3386.42578125 3389.8046875 3394.41479492188 3399.81518554688 3404.45458984375 3409.02661132812 3413.7255859375 3417.9306640625 3421.9423828125 3426.67041015625 3431.68823242188 3436.29858398438 3441.34448242188 3447.8798828125 3453.6533203125 3457.70825195312 3461.85961914062 3466.65844726562 3471.54516601562 3475.5791015625 3479.31469726562 3482.87451171875 3486.06884765625 3488.76489257812 3491.3193359375 3493.82373046875 3496.1083984375 3498.17431640625 3500.2783203125 3501.88427734375 3502.9130859375 3503.67822265625 -3.4e+38 -3.4e+38 -3.4e+38 -3.4e+38 -3.4e+38 -3.4e+38 -3.4e+38 -3.4e+38 -3.4e+38 -3.4e+38 -3.4e+38 -3.4e+38 -3.4e+38 -3.4e+38 -3.4e+38 -3.4e+38 -3.4e+38 -3.4e+38 -3.4e+38 -3.4e+38 -3.4e+38 -3.4e+38 -3.4e+38 -3.4e+38 -3.4e+38 -3.4e+38 -3.4e+38 -3.4e+38 -3.4e+38 -3.4e+38 -3.4e+38 -3.4e+38 -3.4e+38 -3.4e+38 -3.4e+38 -3.4e+38 -3.4e+38 -3.4e+38 -3.4e+38 -3.4e+38 -3.4e+38 -3.4e+38 -3.4e+38 -3.4e+38 -3.4e+38 -3.4e+38 -3.4e+38 -3.4e+38 -3.4e+38 -3.4e+38 -3.4e+38 -3.4e+38 -3.4e+38 -3.4e+38 -3.4e+38 -3.4e+38 -3.4e+38 -3.4e+38 -3.4e+38
