NCOLS 219
NROWS 32
XLLCORNER 424681.519902
YLLCORNER 4414347.22541
CELLSIZE 10 
NODATA_value -3.4e+38 
-3.4e+38 -3.4e+38 -3.4e+38 -3.4e+38 -3.4e+38 -3.4e+38 -3.4e+38 -3.4e+38 -3.4e+38 -3.4e+38 -3.4e+38 -3.4e+38 -3.4e+38 -3.4e+38 -3.4e+38 -3.4e+38 -3.4e+38 -3.4e+38 -3.4e+38 -3.4e+38 -3.4e+38 -3.4e+38 -3.4e+38 -3.4e+38 -3.4e+38 -3.4e+38 -3.4e+38 -3.4e+38 -3.4e+38 -3.4e+38 -3.4e+38 -3.4e+38 -3.4e+38 -3.4e+38 -3.4e+38 -3.4e+38 -3.4e+38 -3.4e+38 -3.4e+38 -3.4e+38 -3.4e+38 -3.4e+38 -3.4e+38 -3.4e+38 -3.4e+38 -3.4e+38 -3.4e+38 -3.4e+38 -3.4e+38 -3.4e+38 -3.4e+38 -3.4e+38 -3.4e+38 -3.4e+38 -3.4e+38 -3.4e+38 -3.4e+38 -3.4e+38 -3.4e+38 -3.4e+38 -3.4e+38 -3.4e+38 -3.4e+38 -3.4e+38 -3.4e+38 -3.4e+38 -3.4e+38 -3.4e+38 -3.4e+38 -3.4e+38 -3.4e+38 -3.4e+38 -3.4e+38 -3.4e+38 -3.4e+38 -3.4e+38 -3.4e+38 -3.4e+38 -3.4e+38 -3.4e+38 3212.21850585938 3211.09228515625 3209.57202148438 3207.50537109375 3204.86181640625 3201.677734375 3198.20825195312 3194.92822265625 3191.97534179688 3188.8173828125 3185.77075195312 3183.29296875 3181.58276367188 3179.8583984375 3178.05541992188 3176.29370117188 3174.556640625 3172.44946289062 3170.04614257812 3167.95532226562 3166.38793945312 3164.994140625 3163.93896484375 3163.21875 3162.57055664062 3161.89892578125 3161.21801757812 3160.62548828125 3159.9853515625 3159.27075195312 3158.15747070312 3156.931640625 3156.072265625 3155.60668945312 3155.25268554688 3154.87158203125 3154.37353515625 3153.85620117188 3153.3759765625 3152.91015625 3152.33569335938 3151.8095703125 3151.35473632812 3150.94018554688 3150.53979492188 3150.01000976562 3149.0224609375 3147.21313476562 3145.43041992188 3144.39306640625 3143.56469726562 3142.53295898438 3141.24340820312 3139.91455078125 3138.57763671875 3136.97607421875 3135.25805664062 3133.50537109375 3131.48901367188 3128.83715820312 3126.16040039062 3123.857421875 3121.52758789062 3118.9951171875 3116.45239257812 3114.09887695312 3111.51196289062 3109.76391601562 3110.306640625 3111.92724609375 3113.94482421875 3115.95776367188 3117.7685546875 3119.41357421875 3121.23217773438 3123.05859375 3124.86376953125 3126.8173828125 3129.11547851562 3131.4716796875 3133.49267578125 3135.24438476562 3137.02856445312 3139.19995117188 3141.55004882812 3144.12060546875 3146.8955078125 3149.44262695312 3151.56494140625 3153.73852539062 3155.859375 3157.921875 3159.85766601562 3161.9599609375 3164.03515625 3165.88037109375 3167.71411132812 3169.79443359375 3171.92211914062 3174.05859375 3176.62768554688 3179.74389648438 3182.63500976562 3185.32470703125 3188.60986328125 3191.93408203125 3194.732421875 3197.60424804688 3201.10693359375 3204.5517578125 3207.55517578125 3210.125 3212.73413085938 3215.18872070312 3217.28051757812 3219.51098632812 3222.58349609375 3225.9697265625 3228.8525390625 3231.60546875 3234.6396484375 3237.73046875 3240.34252929688 3242.72436523438 3245.51611328125 3248.72607421875 3251.76538085938 -3.4e+38 -3.4e+38 -3.4e+38 -3.4e+38 -3.4e+38 -3.4e+38 -3.4e+38 -3.4e+38 -3.4e+38 -3.4e+38 -3.4e+38 -3.4e+38
-3.4e+38 -3.4e+38 -3.4e+38 -3.4e+38 -3.4e+38 -3.4e+38 -3.4e+38 -3.4e+38 -3.4e+38 -3.4e+38 -3.4e+38 -3.4e+38 -3.4e+38 -3.4e+38 -3.4e+38 -3.4e+38 -3.4e+38 -3.4e+38 -3.4e+38 -3.4e+38 -3.4e+38 -3.4e+38 -3.4e+38 -3.4e+38 -3.4e+38 -3.4e+38 -3.4e+38 -3.4e+38 -3.4e+38 -3.4e+38 -3.4e+38 -3.4e+38 -3.4e+38 -3.4e+38 -3.4e+38 -3.4e+38 -3.4e+38 -3.4e+38 -3.4e+38 -3.4e+38 -3.4e+38 -3.4e+38 -3.4e+38 -3.4e+38 -3.4e+38 -3.4e+38 -3.4e+38 -3.4e+38 -3.4e+38 -3.4e+38 -3.4e+38 -3.4e+38 -3.4e+38 -3.4e+38 -3.4e+38 -3.4e+38 -3.4e+38 -3.4e+38 -3.4e+38 -3.4e+38 -3.4e+38 -3.4e+38 -3.4e+38 -3.4e+38 -3.4e+38 -3.4e+38 -3.4e+38 -3.4e+38 -3.4e+38 -3.4e+38 -3.4e+38 -3.4e+38 -3.4e+38 -3.4e+38 -3.4e+38 -3.4e+38 -3.4e+38 -3.4e+38 -3.4e+38 3214.66918945312 3213.78784179688 3212.5771484375 3210.97021484375 3209.07177734375 3206.8603515625 3203.65747070312 3200.00317382812 3196.62548828125 3193.65649414062 3190.42114257812 3187.24194335938 3184.53735351562 3182.50927734375 3180.74780273438 3178.94067382812 3177.10986328125 3175.19653320312 3172.84033203125 3170.49536132812 3168.92431640625 3167.72338867188 3166.5478515625 3165.60913085938 3164.96166992188 3164.36108398438 3163.69506835938 3162.986328125 3162.36743164062 3161.63940429688 3160.48022460938 3158.92919921875 3157.83569335938 3157.35693359375 3157.14208984375 3156.94482421875 3156.76147460938 3156.49291992188 3156.20922851562 3155.9013671875 3155.51513671875 3155.01831054688 3154.49951171875 3154.0126953125 3153.50756835938 3152.94384765625 3152.08471679688 3150.79467773438 3149.05126953125 3147.58422851562 3146.64135742188 3145.8388671875 3144.80981445312 3143.525390625 3142.24829101562 3140.9609375 3139.38232421875 3137.7373046875 3136.15991210938 3134.26513671875 3131.64575195312 3128.9169921875 3126.53588867188 3124.08447265625 3121.50537109375 3118.98266601562 3116.6845703125 3114.27465820312 3112.40356445312 3112.36206054688 3113.83959960938 3115.78002929688 3117.78198242188 3119.64624023438 3121.36596679688 3123.26928710938 3125.2412109375 3127.21215820312 3129.27221679688 3131.63208007812 3133.97412109375 3135.95849609375 3137.79833984375 3139.6533203125 3141.56127929688 3143.48120117188 3145.77563476562 3148.46875 3150.99096679688 3153.1572265625 3155.39331054688 3157.57568359375 3159.69458007812 3161.71948242188 3163.94140625 3166.11206054688 3167.99780273438 3169.85400390625 3172.03100585938 3174.41723632812 3176.751953125 3179.35083007812 3182.2646484375 3184.92749023438 3187.45336914062 3190.39794921875 3193.31176757812 3195.9765625 3198.85546875 3202.27856445312 3205.40454101562 3208.1328125 3210.61865234375 3213.35424804688 3215.7421875 3217.56518554688 3219.7080078125 3222.87890625 3226.28198242188 3228.9814453125 3231.6806640625 3234.93286132812 3238.30224609375 3240.94653320312 3243.55493164062 3246.740234375 3250.29248046875 3253.50903320312 3256.57202148438 -3.4e+38 -3.4e+38 -3.4e+38 -3.4e+38 -3.4e+38 -3.4e+38 -3.4e+38 -3.4e+38 -3.4e+38 -3.4e+38 -3.4e+38
-3.4e+38 -3.4e+38 -3.4e+38 -3.4e+38 -3.4e+38 -3.4e+38 -3.4e+38 -3.4e+38 -3.4e+38 -3.4e+38 -3.4e+38 -3.4e+38 -3.4e+38 -3.4e+38 -3.4e+38 -3.4e+38 -3.4e+38 -3.4e+38 -3.4e+38 -3.4e+38 -3.4e+38 -3.4e+38 -3.4e+38 -3.4e+38 -3.4e+38 -3.4e+38 -3.4e+38 -3.4e+38 -3.4e+38 -3.4e+38 -3.4e+38 -3.4e+38 -3.4e+38 -3.4e+38 -3.4e+38 -3.4e+38 -3.4e+38 -3.4e+38 -3.4e+38 -3.4e+38 -3.4e+38 -3.4e+38 -3.4e+38 -3.4e+38 -3.4e+38 -3.4e+38 -3.4e+38 -3.4e+38 -3.4e+38 -3.4e+38 -3.4e+38 -3.4e+38 -3.4e+38 -3.4e+38 -3.4e+38 -3.4e+38 -3.4e+38 -3.4e+38 -3.4e+38 -3.4e+38 -3.4e+38 -3.4e+38 -3.4e+38 -3.4e+38 -3.4e+38 -3.4e+38 -3.4e+38 -3.4e+38 -3.4e+38 -3.4e+38 -3.4e+38 -3.4e+38 -3.4e+38 -3.4e+38 -3.4e+38 -3.4e+38 -3.4e+38 -3.4e+38 -3.4e+38 3216.56640625 3215.38500976562 3213.94873046875 3212.17431640625 3210.34814453125 3208.40405273438 3205.4423828125 3201.68896484375 3198.2705078125 3195.30615234375 3192.01318359375 3188.71704101562 3185.90283203125 3183.61572265625 3181.64282226562 3179.82543945312 3177.98754882812 3175.9658203125 3173.62451171875 3171.58569335938 3170.205078125 3169.12036132812 3168.15600585938 3167.40234375 3166.828125 3166.23950195312 3165.60522460938 3164.9189453125 3164.17065429688 3163.1669921875 3161.72216796875 3160.10986328125 3159.173828125 3158.94921875 3158.888671875 3158.80224609375 3158.73852539062 3158.63696289062 3158.55224609375 3158.36840820312 3158.0458984375 3157.61962890625 3157.1533203125 3156.63745117188 3156.00952148438 3155.318359375 3154.44897460938 3153.34130859375 3151.91723632812 3150.54296875 3149.48413085938 3148.48583984375 3147.234375 3145.85205078125 3144.5869140625 3143.33813476562 3141.76513671875 3140.07055664062 3138.50439453125 3136.70068359375 3134.287109375 3131.658203125 3129.26538085938 3126.76245117188 3124.10131835938 3121.56030273438 3119.31494140625 3116.99243164062 3115.02124023438 3114.57983398438 3115.767578125 3117.61645507812 3119.6611328125 3121.552734375 3123.32641601562 3125.33740234375 3127.43603515625 3129.51708984375 3131.70483398438 3134.09130859375 3136.36401367188 3138.28784179688 3140.2099609375 3142.185546875 3143.9169921875 3145.43774414062 3147.42749023438 3150.0615234375 3152.61596679688 3154.78442382812 3157.03173828125 3159.31811523438 3161.52075195312 3163.63696289062 3165.97607421875 3168.26196289062 3170.20825195312 3172.15405273438 3174.54150390625 3177.09106445312 3179.48461914062 3182.09741210938 3184.81323242188 3187.36596679688 3189.84130859375 3192.60522460938 3195.32373046875 3198.03930664062 3200.86254882812 3203.9990234375 3206.83325195312 3209.23950195312 3211.66674804688 3214.36962890625 3216.52392578125 3218.01049804688 3219.88818359375 3223.35375976562 3227.01708984375 3229.46606445312 3231.9609375 3235.4873046875 3239.1591796875 3241.82348632812 3244.64233398438 3248.25463867188 3252.1103515625 3255.29418945312 3258.2685546875 -3.4e+38 -3.4e+38 -3.4e+38 -3.4e+38 -3.4e+38 -3.4e+38 -3.4e+38 -3.4e+38 -3.4e+38 -3.4e+38 -3.4e+38
-3.4e+38 -3.4e+38 -3.4e+38 -3.4e+38 -3.4e+38 -3.4e+38 -3.4e+38 -3.4e+38 -3.4e+38 -3.4e+38 -3.4e+38 -3.4e+38 -3.4e+38 -3.4e+38 -3.4e+38 -3.4e+38 -3.4e+38 -3.4e+38 -3.4e+38 -3.4e+38 -3.4e+38 -3.4e+38 -3.4e+38 -3.4e+38 -3.4e+38 -3.4e+38 -3.4e+38 -3.4e+38 -3.4e+38 -3.4e+38 -3.4e+38 -3.4e+38 -3.4e+38 -3.4e+38 -3.4e+38 -3.4e+38 -3.4e+38 -3.4e+38 -3.4e+38 -3.4e+38 -3.4e+38 -3.4e+38 -3.4e+38 -3.4e+38 -3.4e+38 -3.4e+38 -3.4e+38 -3.4e+38 -3.4e+38 -3.4e+38 -3.4e+38 -3.4e+38 -3.4e+38 -3.4e+38 -3.4e+38 -3.4e+38 -3.4e+38 -3.4e+38 -3.4e+38 -3.4e+38 -3.4e+38 -3.4e+38 -3.4e+38 -3.4e+38 -3.4e+38 -3.4e+38 -3.4e+38 -3.4e+38 -3.4e+38 -3.4e+38 -3.4e+38 -3.4e+38 -3.4e+38 -3.4e+38 -3.4e+38 -3.4e+38 -3.4e+38 -3.4e+38 -3.4e+38 3218.18920898438 3216.79516601562 3215.19384765625 3213.24145507812 3211.29418945312 3209.42114257812 3206.75512695312 3203.14306640625 3199.69018554688 3196.65161132812 3193.43969726562 3190.15307617188 3187.26586914062 3184.85815429688 3182.60327148438 3180.765625 3179.02416992188 3177.14111328125 3174.93017578125 3173.10546875 3171.67529296875 3170.57641601562 3169.8515625 3169.21215820312 3168.65478515625 3168.06298828125 3167.44018554688 3166.76635742188 3165.9765625 3164.87231445312 3163.470703125 3162.15307617188 3161.35034179688 3161.06469726562 3161.01123046875 3161 3160.96337890625 3160.93090820312 3160.94799804688 3160.81982421875 3160.57861328125 3160.21557617188 3159.77514648438 3159.25 3158.5712890625 3157.81982421875 3157.01806640625 3156.18920898438 3155.10473632812 3153.9033203125 3152.76342773438 3151.48486328125 3149.97509765625 3148.43969726562 3147.08251953125 3145.75366210938 3144.11474609375 3142.3759765625 3140.74047851562 3138.93041992188 3136.72802734375 3134.32543945312 3132.0146484375 3129.4931640625 3126.77221679688 3124.17822265625 3121.91943359375 3119.53540039062 3117.43041992188 3116.68994140625 3117.59301757812 3119.46020507812 3121.5341796875 3123.43603515625 3125.23657226562 3127.32543945312 3129.4931640625 3131.62109375 3133.90747070312 3136.42651367188 3138.74731445312 3140.72094726562 3142.73046875 3144.73120117188 3146.40063476562 3147.73291015625 3149.48876953125 3151.9267578125 3154.34838867188 3156.47827148438 3158.7763671875 3161.19018554688 3163.46411132812 3165.62719726562 3168.1083984375 3170.5146484375 3172.53881835938 3174.6337890625 3177.17529296875 3179.8037109375 3182.20703125 3184.66943359375 3187.18774414062 3189.76318359375 3192.2197265625 3194.92846679688 3197.70629882812 3200.49584960938 3203.26733398438 3206.18579101562 3208.81298828125 3211.09814453125 3213.37622070312 3215.78662109375 3217.74633789062 3219.29223632812 3221.32104492188 3224.86254882812 3228.51416015625 3230.7978515625 3233.25561523438 3236.81103515625 3240.44165039062 3243.16943359375 3246.345703125 3250.26733398438 3254.09521484375 3257.14721679688 3260.01391601562 3262.7158203125 -3.4e+38 -3.4e+38 -3.4e+38 -3.4e+38 -3.4e+38 -3.4e+38 -3.4e+38 -3.4e+38 -3.4e+38 -3.4e+38
-3.4e+38 -3.4e+38 -3.4e+38 -3.4e+38 -3.4e+38 -3.4e+38 -3.4e+38 -3.4e+38 -3.4e+38 -3.4e+38 -3.4e+38 -3.4e+38 -3.4e+38 -3.4e+38 -3.4e+38 -3.4e+38 -3.4e+38 -3.4e+38 -3.4e+38 -3.4e+38 -3.4e+38 -3.4e+38 -3.4e+38 -3.4e+38 -3.4e+38 -3.4e+38 -3.4e+38 -3.4e+38 -3.4e+38 -3.4e+38 -3.4e+38 -3.4e+38 -3.4e+38 -3.4e+38 -3.4e+38 -3.4e+38 -3.4e+38 -3.4e+38 -3.4e+38 -3.4e+38 -3.4e+38 -3.4e+38 -3.4e+38 -3.4e+38 -3.4e+38 -3.4e+38 -3.4e+38 -3.4e+38 -3.4e+38 -3.4e+38 -3.4e+38 -3.4e+38 -3.4e+38 -3.4e+38 -3.4e+38 -3.4e+38 -3.4e+38 -3.4e+38 -3.4e+38 -3.4e+38 -3.4e+38 -3.4e+38 -3.4e+38 -3.4e+38 -3.4e+38 -3.4e+38 -3.4e+38 -3.4e+38 -3.4e+38 -3.4e+38 -3.4e+38 -3.4e+38 -3.4e+38 -3.4e+38 -3.4e+38 -3.4e+38 -3.4e+38 -3.4e+38 -3.4e+38 3219.6083984375 3218.017578125 3216.19873046875 3214.17407226562 3212.09155273438 3210.15405273438 3207.6826171875 3204.38256835938 3200.94482421875 3197.84375 3194.61987304688 3191.48461914062 3188.6865234375 3186.19311523438 3183.83056640625 3181.94580078125 3180.33520507812 3178.64599609375 3176.6552734375 3174.7958984375 3173.447265625 3172.41015625 3171.70629882812 3171.08935546875 3170.53393554688 3169.93969726562 3169.31762695312 3168.67309570312 3167.94848632812 3166.89770507812 3165.71826171875 3164.71801757812 3163.89599609375 3163.48706054688 3163.32177734375 3163.26513671875 3163.31591796875 3163.36865234375 3163.392578125 3163.33715820312 3163.19189453125 3162.900390625 3162.46508789062 3161.93969726562 3161.2568359375 3160.51196289062 3159.76904296875 3159.06103515625 3158.19848632812 3157.26049804688 3156.13354492188 3154.69848632812 3153.02880859375 3151.3330078125 3149.81323242188 3148.28881835938 3146.47705078125 3144.6884765625 3143.04223632812 3141.19458007812 3139.0546875 3136.81982421875 3134.64770507812 3132.17211914062 3129.458984375 3126.80297851562 3124.474609375 3122.0537109375 3119.85302734375 3118.80908203125 3119.45361328125 3121.390625 3123.4375 3125.31909179688 3127.10302734375 3129.17846679688 3131.36083984375 3133.45703125 3135.8603515625 3138.6376953125 3141.19775390625 3143.287109375 3145.31298828125 3147.2587890625 3148.9228515625 3150.322265625 3152.02197265625 3154.0927734375 3156.212890625 3158.28833007812 3160.6728515625 3163.17065429688 3165.46948242188 3167.677734375 3170.2255859375 3172.75927734375 3174.91821289062 3177.16528320312 3179.80883789062 3182.47045898438 3184.72631835938 3187.03784179688 3189.56005859375 3192.12255859375 3194.51049804688 3197.27124023438 3200.2041015625 3203.05444335938 3205.78979492188 3208.56005859375 3211.04028320312 3213.26391601562 3215.41333007812 3217.54638671875 3219.59155273438 3221.64135742188 3224.2314453125 3227.72265625 3230.97778320312 3233.51220703125 3236.42724609375 3239.5615234375 3242.11352539062 3244.81958007812 3248.5224609375 3252.57348632812 3256.142578125 3258.98876953125 3261.87060546875 3264.5830078125 -3.4e+38 -3.4e+38 -3.4e+38 -3.4e+38 -3.4e+38 -3.4e+38 -3.4e+38 -3.4e+38 -3.4e+38 -3.4e+38
-3.4e+38 -3.4e+38 -3.4e+38 -3.4e+38 -3.4e+38 -3.4e+38 -3.4e+38 -3.4e+38 -3.4e+38 -3.4e+38 -3.4e+38 -3.4e+38 -3.4e+38 -3.4e+38 -3.4e+38 -3.4e+38 -3.4e+38 -3.4e+38 -3.4e+38 -3.4e+38 -3.4e+38 -3.4e+38 -3.4e+38 -3.4e+38 -3.4e+38 -3.4e+38 -3.4e+38 -3.4e+38 -3.4e+38 -3.4e+38 -3.4e+38 -3.4e+38 -3.4e+38 -3.4e+38 -3.4e+38 -3.4e+38 -3.4e+38 -3.4e+38 -3.4e+38 -3.4e+38 -3.4e+38 -3.4e+38 -3.4e+38 -3.4e+38 -3.4e+38 -3.4e+38 -3.4e+38 -3.4e+38 -3.4e+38 -3.4e+38 -3.4e+38 -3.4e+38 -3.4e+38 -3.4e+38 -3.4e+38 -3.4e+38 -3.4e+38 -3.4e+38 -3.4e+38 -3.4e+38 -3.4e+38 -3.4e+38 -3.4e+38 -3.4e+38 -3.4e+38 -3.4e+38 -3.4e+38 -3.4e+38 -3.4e+38 -3.4e+38 -3.4e+38 -3.4e+38 -3.4e+38 -3.4e+38 -3.4e+38 -3.4e+38 -3.4e+38 -3.4e+38 -3.4e+38 3220.53662109375 3218.92407226562 3216.90698242188 3214.787109375 3212.77905273438 3210.85620117188 3208.52368164062 3205.51416015625 3202.0986328125 3198.97192382812 3195.74633789062 3192.73193359375 3190.05639648438 3187.61596679688 3185.28784179688 3183.32373046875 3181.6787109375 3180.10302734375 3178.41455078125 3176.7451171875 3175.44116210938 3174.43237304688 3173.68139648438 3173.0703125 3172.51440429688 3171.91381835938 3171.2919921875 3170.68969726562 3170.03271484375 3169.03515625 3167.94921875 3167.07348632812 3166.4091796875 3165.98364257812 3165.71826171875 3165.67993164062 3165.7060546875 3165.9111328125 3166.04541015625 3166.06127929688 3165.95190429688 3165.71240234375 3165.31884765625 3164.79296875 3164.10571289062 3163.34790039062 3162.60131835938 3161.9111328125 3161.10107421875 3160.2607421875 3159.24340820312 3157.87939453125 3156.14208984375 3154.32055664062 3152.63305664062 3150.95678710938 3149.0107421875 3147.1083984375 3145.423828125 3143.52905273438 3141.34399414062 3139.13696289062 3137.078125 3134.76904296875 3132.1650390625 3129.48413085938 3127.05151367188 3124.53588867188 3122.23974609375 3120.92895507812 3121.33276367188 3123.27978515625 3125.32348632812 3127.1767578125 3128.97314453125 3131.00903320312 3133.11694335938 3135.25268554688 3137.87109375 3140.8857421875 3143.68505859375 3145.84252929688 3147.79077148438 3149.611328125 3151.27221679688 3152.75903320312 3154.44946289062 3156.28100585938 3158.12841796875 3160.16674804688 3162.64233398438 3165.17602539062 3167.46948242188 3169.701171875 3172.25170898438 3174.82421875 3177.12890625 3179.6220703125 3182.36743164062 3184.849609375 3187.01245117188 3189.3544921875 3191.89819335938 3194.44311523438 3196.86059570312 3199.73706054688 3202.81396484375 3205.67700195312 3208.25146484375 3210.87133789062 3213.353515625 3215.5390625 3217.5283203125 3219.765625 3222.37158203125 3224.912109375 3227.8359375 3231.3154296875 3234.96044921875 3238.3154296875 3241.27368164062 3243.42724609375 3245.09130859375 3247.45092773438 3251.07739257812 3254.83276367188 3258.14477539062 3260.96020507812 3263.9013671875 3266.54443359375 3268.84985351562 -3.4e+38 -3.4e+38 -3.4e+38 -3.4e+38 -3.4e+38 -3.4e+38 -3.4e+38 -3.4e+38 -3.4e+38
-3.4e+38 -3.4e+38 -3.4e+38 -3.4e+38 -3.4e+38 -3.4e+38 -3.4e+38 -3.4e+38 -3.4e+38 -3.4e+38 -3.4e+38 -3.4e+38 -3.4e+38 -3.4e+38 -3.4e+38 -3.4e+38 -3.4e+38 -3.4e+38 -3.4e+38 -3.4e+38 -3.4e+38 -3.4e+38 -3.4e+38 -3.4e+38 -3.4e+38 -3.4e+38 -3.4e+38 -3.4e+38 -3.4e+38 -3.4e+38 -3.4e+38 -3.4e+38 -3.4e+38 -3.4e+38 -3.4e+38 -3.4e+38 -3.4e+38 -3.4e+38 -3.4e+38 -3.4e+38 -3.4e+38 -3.4e+38 -3.4e+38 -3.4e+38 -3.4e+38 -3.4e+38 -3.4e+38 -3.4e+38 -3.4e+38 -3.4e+38 -3.4e+38 -3.4e+38 -3.4e+38 -3.4e+38 -3.4e+38 -3.4e+38 -3.4e+38 -3.4e+38 -3.4e+38 -3.4e+38 -3.4e+38 -3.4e+38 -3.4e+38 -3.4e+38 -3.4e+38 -3.4e+38 -3.4e+38 -3.4e+38 -3.4e+38 -3.4e+38 -3.4e+38 -3.4e+38 -3.4e+38 -3.4e+38 -3.4e+38 -3.4e+38 -3.4e+38 -3.4e+38 -3.4e+38 3221.01049804688 3219.50146484375 3217.470703125 3215.345703125 3213.28686523438 3211.3837890625 3209.20092773438 3206.37036132812 3203.09448242188 3200.03295898438 3196.84985351562 3193.88818359375 3191.328125 3188.98046875 3186.71704101562 3184.72973632812 3183.103515625 3181.58764648438 3180.00537109375 3178.59399414062 3177.58642578125 3176.6650390625 3175.7919921875 3175.07690429688 3174.54638671875 3173.99194335938 3173.3740234375 3172.76000976562 3172.07934570312 3171.08837890625 3170.01220703125 3169.13305664062 3168.47583007812 3168.08813476562 3167.955078125 3168.1005859375 3168.26318359375 3168.53442382812 3168.796875 3168.89331054688 3168.86474609375 3168.71630859375 3168.33325195312 3167.80053710938 3167.119140625 3166.2763671875 3165.4228515625 3164.64208984375 3163.78198242188 3162.87939453125 3161.87060546875 3160.67724609375 3159.05615234375 3157.25122070312 3155.5087890625 3153.7431640625 3151.70751953125 3149.69555664062 3147.89916992188 3145.88452148438 3143.6318359375 3141.42602539062 3139.39135742188 3137.185546875 3134.74194335938 3132.12231445312 3129.62182617188 3127.02124023438 3124.65649414062 3123.08325195312 3123.158203125 3125.10717773438 3127.197265625 3129.03076171875 3130.86645507812 3132.91967773438 3135.07690429688 3137.341796875 3140.10815429688 3143.201171875 3146.08666992188 3148.20629882812 3150.07836914062 3151.86450195312 3153.58740234375 3155.13354492188 3156.80859375 3158.54541015625 3160.2685546875 3162.23486328125 3164.70336914062 3167.23999023438 3169.513671875 3171.75 3174.30786132812 3176.88403320312 3179.23388671875 3181.81176757812 3184.56982421875 3186.99365234375 3189.14599609375 3191.54296875 3194.140625 3196.80517578125 3199.41186523438 3202.39819335938 3205.48950195312 3208.22509765625 3210.67529296875 3213.30688476562 3215.806640625 3217.94604492188 3220.02319335938 3222.70092773438 3225.7490234375 3228.58813476562 3231.73901367188 3235.81494140625 3240.251953125 3243.70947265625 3246.01733398438 3247.6357421875 3249.30541992188 3251.18188476562 3253.8154296875 3257.00244140625 3260.25659179688 3263.07788085938 3265.89501953125 3268.55151367188 3270.822265625 -3.4e+38 -3.4e+38 -3.4e+38 -3.4e+38 -3.4e+38 -3.4e+38 -3.4e+38 -3.4e+38 -3.4e+38
-3.4e+38 -3.4e+38 -3.4e+38 -3.4e+38 -3.4e+38 -3.4e+38 -3.4e+38 -3.4e+38 -3.4e+38 -3.4e+38 -3.4e+38 -3.4e+38 -3.4e+38 -3.4e+38 -3.4e+38 -3.4e+38 -3.4e+38 -3.4e+38 -3.4e+38 -3.4e+38 -3.4e+38 -3.4e+38 -3.4e+38 -3.4e+38 -3.4e+38 -3.4e+38 -3.4e+38 -3.4e+38 -3.4e+38 -3.4e+38 -3.4e+38 -3.4e+38 -3.4e+38 -3.4e+38 -3.4e+38 -3.4e+38 -3.4e+38 -3.4e+38 -3.4e+38 -3.4e+38 -3.4e+38 -3.4e+38 -3.4e+38 -3.4e+38 -3.4e+38 -3.4e+38 -3.4e+38 -3.4e+38 -3.4e+38 -3.4e+38 -3.4e+38 -3.4e+38 -3.4e+38 -3.4e+38 -3.4e+38 -3.4e+38 -3.4e+38 -3.4e+38 -3.4e+38 -3.4e+38 -3.4e+38 -3.4e+38 -3.4e+38 -3.4e+38 -3.4e+38 -3.4e+38 -3.4e+38 -3.4e+38 -3.4e+38 -3.4e+38 -3.4e+38 -3.4e+38 -3.4e+38 -3.4e+38 -3.4e+38 -3.4e+38 -3.4e+38 -3.4e+38 3222.48168945312 3221.2509765625 3219.83081054688 3217.89282226562 3215.81494140625 3213.796875 3211.86450195312 3209.68115234375 3206.986328125 3203.95483398438 3201.05883789062 3197.87548828125 3194.9404296875 3192.53002929688 3190.30541992188 3188.02612304688 3186.01220703125 3184.44921875 3182.93310546875 3181.44555664062 3180.28125 3179.4453125 3178.61865234375 3177.81420898438 3177.16455078125 3176.6201171875 3176.03466796875 3175.416015625 3174.79760742188 3174.09790039062 3173.12866210938 3172.05078125 3171.04150390625 3170.2763671875 3170.03051757812 3170.17602539062 3170.443359375 3170.74536132812 3171.134765625 3171.53247070312 3171.72875976562 3171.77319335938 3171.66625976562 3171.3232421875 3170.83715820312 3170.1357421875 3169.13427734375 3168.18579101562 3167.32568359375 3166.4052734375 3165.41333007812 3164.31372070312 3163.1611328125 3161.67919921875 3159.98266601562 3158.33642578125 3156.56982421875 3154.48071289062 3152.33154296875 3150.36669921875 3148.22265625 3145.91479492188 3143.7041015625 3141.68334960938 3139.4423828125 3137.03930664062 3134.56860351562 3132.12939453125 3129.46557617188 3126.9775390625 3125.15234375 3124.86083984375 3126.74194335938 3129.02124023438 3130.91870117188 3132.79223632812 3134.97338867188 3137.37133789062 3139.73510742188 3142.46166992188 3145.44873046875 3148.18432617188 3150.26171875 3152.25463867188 3154.20239257812 3155.95458984375 3157.48315429688 3159.18017578125 3160.92236328125 3162.65869140625 3164.51416015625 3166.8525390625 3169.32153320312 3171.533203125 3173.78857421875 3176.34594726562 3178.88452148438 3181.1953125 3183.71508789062 3186.38037109375 3188.89135742188 3191.11474609375 3193.63305664062 3196.40014648438 3199.2412109375 3202.02709960938 3205.0849609375 3208.09790039062 3210.71850585938 3213.16479492188 3215.87158203125 3218.3994140625 3220.6298828125 3223.02465820312 3226.20190429688 3229.51611328125 3232.70483398438 3236.69018554688 3241.23388671875 3245.1904296875 3248.06787109375 3250.24829101562 3251.95971679688 3253.7275390625 3255.30883789062 3257.140625 3259.68017578125 3262.64135742188 3265.21508789062 3267.93701171875 3270.57275390625 3272.82690429688 -3.4e+38 -3.4e+38 -3.4e+38 -3.4e+38 -3.4e+38 -3.4e+38 -3.4e+38 -3.4e+38 -3.4e+38
-3.4e+38 -3.4e+38 -3.4e+38 -3.4e+38 -3.4e+38 -3.4e+38 -3.4e+38 -3.4e+38 -3.4e+38 -3.4e+38 -3.4e+38 -3.4e+38 -3.4e+38 -3.4e+38 -3.4e+38 -3.4e+38 -3.4e+38 -3.4e+38 -3.4e+38 -3.4e+38 -3.4e+38 -3.4e+38 -3.4e+38 -3.4e+38 -3.4e+38 -3.4e+38 -3.4e+38 -3.4e+38 -3.4e+38 -3.4e+38 -3.4e+38 -3.4e+38 -3.4e+38 -3.4e+38 -3.4e+38 -3.4e+38 -3.4e+38 -3.4e+38 -3.4e+38 -3.4e+38 -3.4e+38 -3.4e+38 -3.4e+38 -3.4e+38 -3.4e+38 -3.4e+38 -3.4e+38 -3.4e+38 -3.4e+38 -3.4e+38 -3.4e+38 -3.4e+38 -3.4e+38 -3.4e+38 -3.4e+38 -3.4e+38 -3.4e+38 -3.4e+38 -3.4e+38 -3.4e+38 -3.4e+38 -3.4e+38 -3.4e+38 -3.4e+38 -3.4e+38 -3.4e+38 -3.4e+38 -3.4e+38 -3.4e+38 -3.4e+38 -3.4e+38 -3.4e+38 -3.4e+38 -3.4e+38 -3.4e+38 -3.4e+38 -3.4e+38 3223.546875 3222.75659179688 3221.4521484375 3220.07373046875 3218.234375 3216.1953125 3214.18359375 3212.2578125 3210.03173828125 3207.47143554688 3204.64184570312 3201.89428710938 3198.8251953125 3195.9462890625 3193.61376953125 3191.48852539062 3189.24340820312 3187.23193359375 3185.68408203125 3184.16870117188 3182.86743164062 3181.99975585938 3181.2626953125 3180.55859375 3179.8369140625 3179.16577148438 3178.673828125 3178.1142578125 3177.52124023438 3176.94750976562 3176.25 3175.31909179688 3174.30834960938 3173.33129882812 3172.58520507812 3172.37182617188 3172.61010742188 3172.90380859375 3173.26025390625 3173.71069335938 3174.18701171875 3174.52294921875 3174.64770507812 3174.5693359375 3174.23217773438 3173.724609375 3172.97314453125 3171.90649414062 3170.90649414062 3169.97631835938 3168.98876953125 3167.9677734375 3166.86840820312 3165.64672851562 3164.1162109375 3162.48071289062 3160.95141601562 3159.29711914062 3157.22265625 3154.90185546875 3152.80444335938 3150.59350585938 3148.23950195312 3146.00390625 3143.97241210938 3141.66943359375 3139.18823242188 3136.76000976562 3134.46118164062 3131.7666015625 3129.09814453125 3127.09057617188 3126.50952148438 3128.25756835938 3130.76391601562 3132.83447265625 3134.8759765625 3137.24340820312 3139.73681640625 3142.0751953125 3144.72412109375 3147.5361328125 3150.0908203125 3152.24536132812 3154.4609375 3156.56469726562 3158.3232421875 3159.84301757812 3161.55444335938 3163.30859375 3165.05639648438 3166.79272460938 3168.9560546875 3171.38525390625 3173.61499023438 3175.83178710938 3178.31494140625 3180.79638671875 3183.06298828125 3185.53369140625 3188.162109375 3190.689453125 3192.92431640625 3195.56689453125 3198.63134765625 3201.71997070312 3204.68286132812 3207.7626953125 3210.63916015625 3213.23950195312 3215.7333984375 3218.53540039062 3221.17578125 3223.49853515625 3226.17944335938 3229.74536132812 3233.80126953125 3237.91577148438 3242.24731445312 3246.15209960938 3249.4580078125 3252.17114257812 3254.55615234375 3256.32666015625 3257.994140625 3259.544921875 3261.3359375 3263.38208007812 3265.35498046875 3267.4130859375 3270.07934570312 3272.6669921875 3274.87841796875 3276.94580078125 -3.4e+38 -3.4e+38 -3.4e+38 -3.4e+38 -3.4e+38 -3.4e+38 -3.4e+38 -3.4e+38
-3.4e+38 -3.4e+38 -3.4e+38 -3.4e+38 -3.4e+38 -3.4e+38 -3.4e+38 -3.4e+38 -3.4e+38 -3.4e+38 -3.4e+38 -3.4e+38 -3.4e+38 -3.4e+38 -3.4e+38 -3.4e+38 -3.4e+38 -3.4e+38 -3.4e+38 -3.4e+38 -3.4e+38 -3.4e+38 -3.4e+38 -3.4e+38 -3.4e+38 -3.4e+38 -3.4e+38 -3.4e+38 -3.4e+38 -3.4e+38 -3.4e+38 -3.4e+38 -3.4e+38 -3.4e+38 -3.4e+38 -3.4e+38 -3.4e+38 -3.4e+38 -3.4e+38 -3.4e+38 -3.4e+38 -3.4e+38 -3.4e+38 -3.4e+38 -3.4e+38 -3.4e+38 -3.4e+38 -3.4e+38 -3.4e+38 -3.4e+38 -3.4e+38 -3.4e+38 -3.4e+38 -3.4e+38 -3.4e+38 -3.4e+38 -3.4e+38 -3.4e+38 -3.4e+38 -3.4e+38 -3.4e+38 -3.4e+38 -3.4e+38 -3.4e+38 -3.4e+38 -3.4e+38 -3.4e+38 -3.4e+38 -3.4e+38 -3.4e+38 -3.4e+38 -3.4e+38 -3.4e+38 -3.4e+38 -3.4e+38 -3.4e+38 -3.4e+38 3223.74780273438 3222.923828125 3221.65380859375 3220.3095703125 3218.52661132812 3216.53540039062 3214.5498046875 3212.60791015625 3210.40234375 3207.93359375 3205.2529296875 3202.59741210938 3199.6845703125 3196.86572265625 3194.61206054688 3192.63330078125 3190.54663085938 3188.56176757812 3186.98364257812 3185.58032226562 3184.48999023438 3183.74926757812 3183.08129882812 3182.41430664062 3181.7890625 3181.20263671875 3180.69750976562 3180.20092773438 3179.68530273438 3179.14428710938 3178.58325195312 3177.8408203125 3177.00512695312 3176.21826171875 3175.59765625 3175.296875 3175.3515625 3175.53344726562 3175.84448242188 3176.30444335938 3176.92553710938 3177.53295898438 3177.80029296875 3177.71606445312 3177.20263671875 3176.53295898438 3175.68823242188 3174.65307617188 3173.64770507812 3172.65795898438 3171.58666992188 3170.5361328125 3169.44799804688 3168.14819335938 3166.50537109375 3164.89794921875 3163.43383789062 3161.79272460938 3159.72827148438 3157.42260742188 3155.29809570312 3153.02880859375 3150.62573242188 3148.345703125 3146.27954101562 3143.923828125 3141.35302734375 3138.8916015625 3136.59521484375 3133.9521484375 3131.22534179688 3129.03759765625 3128.29736328125 3129.96362304688 3132.58544921875 3134.85791015625 3137.15356445312 3139.6533203125 3142.11157226562 3144.33837890625 3146.83544921875 3149.53637695312 3152.06665039062 3154.30688476562 3156.64770507812 3158.87182617188 3160.66967773438 3162.22314453125 3163.97143554688 3165.74853515625 3167.38330078125 3168.8974609375 3170.92456054688 3173.50341796875 3175.79052734375 3178.00439453125 3180.27197265625 3182.58154296875 3184.830078125 3187.26025390625 3189.88745117188 3192.3974609375 3194.70703125 3197.53540039062 3200.724609375 3203.95288085938 3207.01123046875 3210.1201171875 3213.02416992188 3215.6904296875 3218.25634765625 3221.09790039062 3223.83520507812 3226.28125 3229.048828125 3233.20092773438 3238.8642578125 3243.51440429688 3247.00170898438 3250.28369140625 3253.36572265625 3255.99951171875 3258.40209960938 3260.40747070312 3262.31298828125 3264.09692382812 3265.83715820312 3267.27368164062 3268.47631835938 3270.01123046875 3272.43310546875 3274.94409179688 3277.01611328125 3279.04956054688 -3.4e+38 -3.4e+38 -3.4e+38 -3.4e+38 -3.4e+38 -3.4e+38 -3.4e+38 -3.4e+38
-3.4e+38 -3.4e+38 -3.4e+38 -3.4e+38 -3.4e+38 -3.4e+38 -3.4e+38 -3.4e+38 -3.4e+38 -3.4e+38 -3.4e+38 -3.4e+38 -3.4e+38 -3.4e+38 -3.4e+38 -3.4e+38 -3.4e+38 -3.4e+38 -3.4e+38 -3.4e+38 -3.4e+38 -3.4e+38 -3.4e+38 -3.4e+38 -3.4e+38 -3.4e+38 -3.4e+38 -3.4e+38 -3.4e+38 -3.4e+38 -3.4e+38 -3.4e+38 -3.4e+38 -3.4e+38 -3.4e+38 -3.4e+38 -3.4e+38 -3.4e+38 -3.4e+38 -3.4e+38 -3.4e+38 -3.4e+38 -3.4e+38 -3.4e+38 -3.4e+38 -3.4e+38 -3.4e+38 -3.4e+38 -3.4e+38 -3.4e+38 -3.4e+38 -3.4e+38 -3.4e+38 -3.4e+38 -3.4e+38 -3.4e+38 -3.4e+38 -3.4e+38 -3.4e+38 -3.4e+38 -3.4e+38 -3.4e+38 -3.4e+38 -3.4e+38 -3.4e+38 -3.4e+38 -3.4e+38 -3.4e+38 -3.4e+38 -3.4e+38 -3.4e+38 -3.4e+38 -3.4e+38 -3.4e+38 -3.4e+38 -3.4e+38 -3.4e+38 3223.85913085938 3223.05590820312 3221.85595703125 3220.5830078125 3218.86572265625 3216.83544921875 3214.89477539062 3212.99780273438 3210.79467773438 3208.39599609375 3205.8896484375 3203.26928710938 3200.39453125 3197.71484375 3195.54223632812 3193.61645507812 3191.712890625 3189.94409179688 3188.46557617188 3187.15185546875 3186.1015625 3185.35986328125 3184.771484375 3184.1708984375 3183.64965820312 3183.1845703125 3182.69921875 3182.24877929688 3181.85205078125 3181.42041015625 3181.01953125 3180.5087890625 3179.90844726562 3179.3779296875 3178.92651367188 3178.55590820312 3178.37622070312 3178.3583984375 3178.45727539062 3178.76708984375 3179.654296875 3180.8369140625 3181.2763671875 3180.931640625 3180.19873046875 3179.400390625 3178.45263671875 3177.41088867188 3176.41870117188 3175.439453125 3174.31323242188 3173.16064453125 3171.9921875 3170.57666015625 3168.9033203125 3167.29541015625 3165.80883789062 3164.09545898438 3162.0556640625 3159.88061523438 3157.78002929688 3155.46899414062 3153.025390625 3150.67041015625 3148.58935546875 3146.19360351562 3143.51684570312 3141.0029296875 3138.6474609375 3135.99877929688 3133.19946289062 3130.86474609375 3130.07080078125 3131.8603515625 3134.59643554688 3137.02099609375 3139.50659179688 3142.12817382812 3144.576171875 3146.68017578125 3149.00830078125 3151.59765625 3154.10668945312 3156.32641601562 3158.69750976562 3161.017578125 3162.94653320312 3164.61987304688 3166.466796875 3168.28149414062 3169.7919921875 3171.28271484375 3173.416015625 3176.017578125 3178.3095703125 3180.49462890625 3182.5966796875 3184.61987304688 3186.68530273438 3189.09619140625 3191.65307617188 3194.11083984375 3196.51049804688 3199.5 3202.73315429688 3205.884765625 3208.94140625 3212.27465820312 3215.45385742188 3218.15502929688 3220.67358398438 3223.46728515625 3226.27026367188 3228.81030273438 3232.05834960938 3237.43701171875 3243.45849609375 3247.56103515625 3250.88159179688 3254.06518554688 3256.95288085938 3259.37109375 3261.84985351562 3264.216796875 3266.42333984375 3268.35278320312 3269.91821289062 3271.041015625 3272.05297851562 3273.3515625 3275.26025390625 3277.23266601562 3279.10400390625 3281.28637695312 3284.02490234375 -3.4e+38 -3.4e+38 -3.4e+38 -3.4e+38 -3.4e+38 -3.4e+38 -3.4e+38
-3.4e+38 -3.4e+38 -3.4e+38 -3.4e+38 -3.4e+38 -3.4e+38 -3.4e+38 -3.4e+38 -3.4e+38 -3.4e+38 -3.4e+38 -3.4e+38 -3.4e+38 -3.4e+38 -3.4e+38 -3.4e+38 -3.4e+38 -3.4e+38 -3.4e+38 -3.4e+38 -3.4e+38 -3.4e+38 -3.4e+38 -3.4e+38 -3.4e+38 -3.4e+38 -3.4e+38 -3.4e+38 -3.4e+38 -3.4e+38 -3.4e+38 -3.4e+38 -3.4e+38 -3.4e+38 -3.4e+38 -3.4e+38 -3.4e+38 -3.4e+38 -3.4e+38 -3.4e+38 -3.4e+38 -3.4e+38 -3.4e+38 -3.4e+38 -3.4e+38 -3.4e+38 -3.4e+38 -3.4e+38 -3.4e+38 -3.4e+38 -3.4e+38 -3.4e+38 -3.4e+38 -3.4e+38 -3.4e+38 -3.4e+38 -3.4e+38 -3.4e+38 -3.4e+38 -3.4e+38 -3.4e+38 -3.4e+38 -3.4e+38 -3.4e+38 -3.4e+38 -3.4e+38 -3.4e+38 -3.4e+38 -3.4e+38 -3.4e+38 -3.4e+38 -3.4e+38 -3.4e+38 -3.4e+38 -3.4e+38 -3.4e+38 -3.4e+38 3224.00073242188 3223.1884765625 3222.029296875 3220.77954101562 3219.19360351562 3217.20825195312 3215.29272460938 3213.37866210938 3211.14086914062 3208.83056640625 3206.45581054688 3203.94165039062 3201.130859375 3198.47607421875 3196.37817382812 3194.47021484375 3192.71752929688 3191.23583984375 3190.0234375 3188.7998046875 3187.70288085938 3186.92529296875 3186.34716796875 3185.81567382812 3185.33325195312 3184.92431640625 3184.54223632812 3184.18310546875 3183.884765625 3183.62670898438 3183.37866210938 3183.06079101562 3182.67797851562 3182.35473632812 3182.02270507812 3181.64794921875 3181.36059570312 3181.16186523438 3180.99194335938 3180.97216796875 3181.78100585938 3183.3349609375 3184.099609375 3183.68530273438 3182.97241210938 3182.19604492188 3181.24658203125 3180.26000976562 3179.28295898438 3178.27954101562 3177.06079101562 3175.74877929688 3174.47900390625 3173.02221679688 3171.33447265625 3169.68139648438 3168.16186523438 3166.45385742188 3164.44995117188 3162.32055664062 3160.27612304688 3157.93286132812 3155.41430664062 3152.978515625 3150.79077148438 3148.30883789062 3145.6171875 3143.0810546875 3140.65014648438 3137.81665039062 3134.89184570312 3132.55712890625 3131.84301757812 3133.865234375 3136.78002929688 3139.37646484375 3142.0361328125 3144.72900390625 3147.08227539062 3149.09619140625 3151.3408203125 3153.78955078125 3156.15405273438 3158.33178710938 3160.72119140625 3163.04443359375 3165.11645507812 3167.01245117188 3169.01806640625 3170.83813476562 3172.47924804688 3174.18603515625 3176.42651367188 3178.95922851562 3181.12524414062 3183.13427734375 3185.0087890625 3186.83032226562 3188.66577148438 3190.87915039062 3193.29296875 3195.81079101562 3198.34765625 3201.34912109375 3204.59521484375 3207.708984375 3210.90209960938 3214.54833984375 3217.88354492188 3220.52856445312 3222.93920898438 3225.73315429688 3228.564453125 3231.45385742188 3235.77026367188 3241.66845703125 3247.0283203125 3250.81274414062 3254.27392578125 3257.4482421875 3260.11743164062 3262.44482421875 3265.02734375 3267.63671875 3269.88916015625 3271.76220703125 3273.46508789062 3274.84106445312 3275.96557617188 3277.00122070312 3278.08203125 3279.4248046875 3281.3818359375 3283.92163085938 3286.86694335938 -3.4e+38 -3.4e+38 -3.4e+38 -3.4e+38 -3.4e+38 -3.4e+38 -3.4e+38
-3.4e+38 -3.4e+38 -3.4e+38 -3.4e+38 -3.4e+38 -3.4e+38 -3.4e+38 -3.4e+38 -3.4e+38 -3.4e+38 -3.4e+38 -3.4e+38 -3.4e+38 -3.4e+38 -3.4e+38 -3.4e+38 -3.4e+38 -3.4e+38 -3.4e+38 -3.4e+38 -3.4e+38 -3.4e+38 -3.4e+38 -3.4e+38 -3.4e+38 -3.4e+38 -3.4e+38 -3.4e+38 -3.4e+38 -3.4e+38 -3.4e+38 -3.4e+38 -3.4e+38 -3.4e+38 -3.4e+38 -3.4e+38 -3.4e+38 -3.4e+38 -3.4e+38 -3.4e+38 -3.4e+38 -3.4e+38 -3.4e+38 -3.4e+38 -3.4e+38 -3.4e+38 -3.4e+38 -3.4e+38 -3.4e+38 -3.4e+38 -3.4e+38 -3.4e+38 -3.4e+38 -3.4e+38 -3.4e+38 -3.4e+38 -3.4e+38 -3.4e+38 -3.4e+38 -3.4e+38 -3.4e+38 -3.4e+38 -3.4e+38 -3.4e+38 -3.4e+38 -3.4e+38 -3.4e+38 -3.4e+38 -3.4e+38 -3.4e+38 -3.4e+38 -3.4e+38 -3.4e+38 -3.4e+38 -3.4e+38 -3.4e+38 -3.4e+38 3224.13940429688 3223.3388671875 3222.17260742188 3220.99780273438 3219.498046875 3217.52905273438 3215.62573242188 3213.72607421875 3211.5146484375 3209.2548828125 3207.02197265625 3204.63256835938 3201.87475585938 3199.24609375 3197.12133789062 3195.2265625 3193.59033203125 3192.2744140625 3191.296875 3190.31591796875 3189.30517578125 3188.50048828125 3187.87377929688 3187.37719726562 3186.91088867188 3186.50146484375 3186.19946289062 3185.91528320312 3185.67797851562 3185.49267578125 3185.31689453125 3185.10498046875 3184.86572265625 3184.65893554688 3184.42431640625 3184.14770507812 3183.8955078125 3183.64379882812 3183.349609375 3183.111328125 3183.44848632812 3184.7001953125 3185.7978515625 3185.7412109375 3185.23803710938 3184.615234375 3183.83959960938 3183.02124023438 3182.1357421875 3181.11767578125 3179.77319335938 3178.35595703125 3177.04467773438 3175.55615234375 3173.8193359375 3172.134765625 3170.61645507812 3168.9208984375 3166.96240234375 3164.83471679688 3162.75805664062 3160.30126953125 3157.65844726562 3155.17041015625 3152.8740234375 3150.29833984375 3147.63598632812 3145.13525390625 3142.64404296875 3139.63549804688 3136.56665039062 3134.17138671875 3133.65966796875 3136.06518554688 3139.22314453125 3142.02392578125 3144.7890625 3147.32397460938 3149.51904296875 3151.46948242188 3153.630859375 3155.90869140625 3158.17138671875 3160.38256835938 3162.82763671875 3165.1865234375 3167.30249023438 3169.337890625 3171.54809570312 3173.5390625 3175.33520507812 3177.31787109375 3179.65893554688 3181.98022460938 3183.8056640625 3185.52490234375 3187.26416015625 3189.01782226562 3190.66821289062 3192.65185546875 3194.99926757812 3197.5732421875 3200.19287109375 3203.19506835938 3206.35961914062 3209.56982421875 3212.99584960938 3216.96044921875 3220.38354492188 3222.79467773438 3225.17041015625 3227.94213867188 3230.98413085938 3234.67114257812 3239.86791992188 3245.59521484375 3250.2802734375 3253.91796875 3257.29638671875 3260.29858398438 3262.95190429688 3265.31713867188 3267.94311523438 3270.61108398438 3272.89770507812 3274.91162109375 3276.88330078125 3278.53857421875 3279.78735351562 3280.5595703125 3281.07690429688 3282.11938476562 3284.17602539062 3286.94067382812 3289.87963867188 3292.52905273438 -3.4e+38 -3.4e+38 -3.4e+38 -3.4e+38 -3.4e+38 -3.4e+38
-3.4e+38 -3.4e+38 -3.4e+38 -3.4e+38 -3.4e+38 -3.4e+38 -3.4e+38 -3.4e+38 -3.4e+38 -3.4e+38 -3.4e+38 -3.4e+38 -3.4e+38 -3.4e+38 -3.4e+38 -3.4e+38 -3.4e+38 -3.4e+38 -3.4e+38 -3.4e+38 -3.4e+38 -3.4e+38 -3.4e+38 -3.4e+38 -3.4e+38 -3.4e+38 -3.4e+38 -3.4e+38 -3.4e+38 -3.4e+38 -3.4e+38 -3.4e+38 -3.4e+38 -3.4e+38 -3.4e+38 -3.4e+38 -3.4e+38 -3.4e+38 -3.4e+38 -3.4e+38 -3.4e+38 -3.4e+38 -3.4e+38 -3.4e+38 -3.4e+38 -3.4e+38 -3.4e+38 -3.4e+38 -3.4e+38 -3.4e+38 -3.4e+38 -3.4e+38 -3.4e+38 -3.4e+38 -3.4e+38 -3.4e+38 -3.4e+38 -3.4e+38 -3.4e+38 -3.4e+38 -3.4e+38 -3.4e+38 -3.4e+38 -3.4e+38 -3.4e+38 -3.4e+38 -3.4e+38 -3.4e+38 -3.4e+38 -3.4e+38 -3.4e+38 -3.4e+38 -3.4e+38 -3.4e+38 -3.4e+38 -3.4e+38 3224.82250976562 3224.37109375 3223.5322265625 3222.36157226562 3221.20654296875 3219.74658203125 3217.82202148438 3215.95727539062 3214.13452148438 3211.97924804688 3209.75073242188 3207.671875 3205.36059570312 3202.63745117188 3200.11596679688 3197.97583007812 3196.04809570312 3194.42895507812 3193.24194335938 3192.40234375 3191.57592773438 3190.74926757812 3190.046875 3189.4365234375 3188.92626953125 3188.45825195312 3188.0771484375 3187.81689453125 3187.55810546875 3187.31225585938 3187.12353515625 3186.95922851562 3186.78637695312 3186.60888671875 3186.48315429688 3186.33276367188 3186.13500976562 3185.9462890625 3185.75805664062 3185.5205078125 3185.32641601562 3185.42700195312 3186.19360351562 3187.2109375 3187.400390625 3187.07592773438 3186.623046875 3186.06616210938 3185.412109375 3184.65942382812 3183.72045898438 3182.4345703125 3181.04296875 3179.6875 3178.12475585938 3176.34521484375 3174.64306640625 3173.11474609375 3171.43774414062 3169.56469726562 3167.43798828125 3165.21630859375 3162.58129882812 3159.79541015625 3157.23828125 3154.89770507812 3152.28100585938 3149.63037109375 3147.1845703125 3144.6904296875 3141.607421875 3138.47485351562 3136.02709960938 3135.68041992188 3138.53955078125 3141.83276367188 3144.73657226562 3147.4228515625 3149.70947265625 3151.810546875 3153.712890625 3155.86181640625 3158.13012695312 3160.34155273438 3162.52661132812 3164.99780273438 3167.41845703125 3169.5810546875 3171.6064453125 3173.87329101562 3176.185546875 3178.30004882812 3180.50927734375 3182.72021484375 3184.55224609375 3186.09423828125 3187.71728515625 3189.44799804688 3191.13330078125 3192.68603515625 3194.453125 3196.71020507812 3199.35546875 3201.95092773438 3204.88793945312 3208.15893554688 3211.55932617188 3215.09594726562 3219.03051757812 3222.35473632812 3224.76513671875 3227.26196289062 3230.15161132812 3233.81469726562 3238.48803710938 3243.87548828125 3249.05688476562 3253.54907226562 3256.9345703125 3259.986328125 3262.95947265625 3265.67016601562 3268.060546875 3270.69799804688 3273.38696289062 3275.77026367188 3278.0478515625 3280.23046875 3281.81860351562 3283.00634765625 3283.80883789062 3284.4921875 3285.66943359375 3287.54345703125 3290.03833007812 3292.70361328125 3294.90673828125 -3.4e+38 -3.4e+38 -3.4e+38 -3.4e+38 -3.4e+38 -3.4e+38
-3.4e+38 -3.4e+38 -3.4e+38 -3.4e+38 -3.4e+38 -3.4e+38 -3.4e+38 -3.4e+38 -3.4e+38 -3.4e+38 -3.4e+38 -3.4e+38 -3.4e+38 -3.4e+38 -3.4e+38 -3.4e+38 -3.4e+38 -3.4e+38 -3.4e+38 -3.4e+38 -3.4e+38 -3.4e+38 -3.4e+38 -3.4e+38 -3.4e+38 -3.4e+38 -3.4e+38 -3.4e+38 -3.4e+38 -3.4e+38 -3.4e+38 -3.4e+38 -3.4e+38 -3.4e+38 -3.4e+38 -3.4e+38 -3.4e+38 -3.4e+38 -3.4e+38 -3.4e+38 -3.4e+38 -3.4e+38 -3.4e+38 -3.4e+38 -3.4e+38 -3.4e+38 -3.4e+38 -3.4e+38 -3.4e+38 -3.4e+38 -3.4e+38 -3.4e+38 -3.4e+38 -3.4e+38 -3.4e+38 -3.4e+38 -3.4e+38 -3.4e+38 -3.4e+38 -3.4e+38 -3.4e+38 -3.4e+38 -3.4e+38 -3.4e+38 -3.4e+38 -3.4e+38 -3.4e+38 -3.4e+38 -3.4e+38 -3.4e+38 -3.4e+38 -3.4e+38 -3.4e+38 -3.4e+38 -3.4e+38 -3.4e+38 3224.99096679688 3224.50805664062 3223.6513671875 3222.51513671875 3221.40405273438 3219.97705078125 3218.14038085938 3216.34497070312 3214.54833984375 3212.42822265625 3210.275390625 3208.34765625 3206.15747070312 3203.45434570312 3200.94970703125 3198.91186523438 3197.00561523438 3195.40600585938 3194.30737304688 3193.49877929688 3192.7109375 3192.02172851562 3191.45581054688 3190.89282226562 3190.37622070312 3189.96044921875 3189.63330078125 3189.40258789062 3189.1474609375 3188.91088867188 3188.73901367188 3188.59643554688 3188.4423828125 3188.31103515625 3188.22680664062 3188.11059570312 3187.93798828125 3187.80639648438 3187.69555664062 3187.5791015625 3187.5859375 3187.79125976562 3188.22412109375 3188.80493164062 3189.06860351562 3188.9296875 3188.61303710938 3188.12329101562 3187.51147460938 3186.857421875 3186.0537109375 3184.93896484375 3183.67529296875 3182.30419921875 3180.6591796875 3178.87719726562 3177.16381835938 3175.60278320312 3173.92016601562 3172.08862304688 3169.9814453125 3167.68017578125 3164.90673828125 3161.9921875 3159.30981445312 3156.89477539062 3154.26391601562 3151.62573242188 3149.22412109375 3146.7578125 3143.68115234375 3140.54809570312 3138.19165039062 3137.98071289062 3141.05541992188 3144.41748046875 3147.17309570312 3149.6435546875 3151.94091796875 3154.02368164062 3155.89575195312 3158.05810546875 3160.37963867188 3162.64453125 3164.83203125 3167.26953125 3169.68017578125 3171.80688476562 3173.822265625 3176.12329101562 3178.6005859375 3180.95190429688 3183.2041015625 3185.05810546875 3186.6689453125 3188.142578125 3189.79565429688 3191.61157226562 3193.30981445312 3194.85424804688 3196.65209960938 3198.85815429688 3201.2841796875 3203.70654296875 3206.611328125 3210.00048828125 3213.4931640625 3217.0146484375 3220.7685546875 3223.99243164062 3226.53588867188 3229.15112304688 3232.59228515625 3237.39379882812 3242.3974609375 3247.35498046875 3252.22241210938 3256.49560546875 3259.57153320312 3262.49658203125 3265.48095703125 3268.26000976562 3270.69384765625 3273.34692382812 3276.05200195312 3278.509765625 3280.81982421875 3282.93334960938 3284.53588867188 3285.69262695312 3286.76513671875 3287.92993164062 3289.2900390625 3290.86889648438 3292.88549804688 3295.14038085938 3297.04223632812 -3.4e+38 -3.4e+38 -3.4e+38 -3.4e+38 -3.4e+38 -3.4e+38
-3.4e+38 -3.4e+38 -3.4e+38 -3.4e+38 -3.4e+38 -3.4e+38 -3.4e+38 -3.4e+38 -3.4e+38 -3.4e+38 -3.4e+38 -3.4e+38 -3.4e+38 -3.4e+38 -3.4e+38 -3.4e+38 -3.4e+38 -3.4e+38 -3.4e+38 -3.4e+38 -3.4e+38 -3.4e+38 -3.4e+38 -3.4e+38 -3.4e+38 -3.4e+38 -3.4e+38 -3.4e+38 -3.4e+38 -3.4e+38 -3.4e+38 -3.4e+38 -3.4e+38 -3.4e+38 -3.4e+38 -3.4e+38 -3.4e+38 -3.4e+38 -3.4e+38 -3.4e+38 -3.4e+38 -3.4e+38 -3.4e+38 -3.4e+38 -3.4e+38 -3.4e+38 -3.4e+38 -3.4e+38 -3.4e+38 -3.4e+38 -3.4e+38 -3.4e+38 -3.4e+38 -3.4e+38 -3.4e+38 -3.4e+38 -3.4e+38 -3.4e+38 -3.4e+38 -3.4e+38 -3.4e+38 -3.4e+38 -3.4e+38 -3.4e+38 -3.4e+38 -3.4e+38 -3.4e+38 -3.4e+38 -3.4e+38 -3.4e+38 -3.4e+38 -3.4e+38 -3.4e+38 -3.4e+38 -3.4e+38 -3.4e+38 3225.21215820312 3224.75244140625 3223.89501953125 3222.74926757812 3221.60791015625 3220.20727539062 3218.4443359375 3216.70581054688 3214.97119140625 3212.9267578125 3210.84545898438 3208.99462890625 3206.9443359375 3204.43481445312 3201.99169921875 3199.99340820312 3198.15771484375 3196.59741210938 3195.44091796875 3194.55102539062 3193.78247070312 3193.19213867188 3192.7255859375 3192.25073242188 3191.771484375 3191.3662109375 3191.09033203125 3190.88037109375 3190.66625976562 3190.49829101562 3190.33349609375 3190.189453125 3190.05297851562 3189.953125 3189.88159179688 3189.8134765625 3189.72241210938 3189.65771484375 3189.6591796875 3189.70654296875 3189.82104492188 3190.09838867188 3190.36279296875 3190.607421875 3190.82861328125 3190.83447265625 3190.6630859375 3190.27099609375 3189.7109375 3189.06225585938 3188.2685546875 3187.2607421875 3186.0908203125 3184.74609375 3183.12451171875 3181.35107421875 3179.62744140625 3178.01831054688 3176.24755859375 3174.33203125 3172.3154296875 3170.189453125 3167.443359375 3164.4111328125 3161.5556640625 3158.94921875 3156.24731445312 3153.60180664062 3151.2119140625 3148.79174804688 3145.90649414062 3142.79467773438 3140.48876953125 3140.46923828125 3143.58984375 3146.9287109375 3149.34741210938 3151.69482421875 3153.98950195312 3156.07861328125 3158.03955078125 3160.34252929688 3162.73120117188 3165.01147460938 3167.21875 3169.63159179688 3171.9638671875 3173.951171875 3175.91967773438 3178.25 3180.70727539062 3182.96899414062 3185.04956054688 3186.90966796875 3188.56616210938 3190.08520507812 3191.7236328125 3193.56103515625 3195.43603515625 3197.17797851562 3199.11157226562 3201.28491210938 3203.50219726562 3205.5517578125 3208.2646484375 3211.92578125 3215.423828125 3218.80981445312 3222.37377929688 3225.53369140625 3228.1728515625 3231.08666992188 3235.33837890625 3240.82495117188 3245.70190429688 3250.28466796875 3254.83203125 3258.76318359375 3261.7724609375 3264.7998046875 3267.78564453125 3270.60034179688 3273.1181640625 3275.82958984375 3278.5634765625 3280.95849609375 3283.09692382812 3285.16015625 3286.9033203125 3288.224609375 3289.55590820312 3291.03369140625 3292.44946289062 3293.82006835938 3295.51147460938 3297.47216796875 3299.28442382812 -3.4e+38 -3.4e+38 -3.4e+38 -3.4e+38 -3.4e+38 -3.4e+38
-3.4e+38 -3.4e+38 -3.4e+38 -3.4e+38 -3.4e+38 -3.4e+38 -3.4e+38 -3.4e+38 -3.4e+38 -3.4e+38 -3.4e+38 -3.4e+38 -3.4e+38 -3.4e+38 -3.4e+38 -3.4e+38 -3.4e+38 -3.4e+38 -3.4e+38 -3.4e+38 -3.4e+38 -3.4e+38 -3.4e+38 -3.4e+38 -3.4e+38 -3.4e+38 -3.4e+38 -3.4e+38 -3.4e+38 -3.4e+38 -3.4e+38 -3.4e+38 -3.4e+38 -3.4e+38 -3.4e+38 -3.4e+38 -3.4e+38 -3.4e+38 -3.4e+38 -3.4e+38 -3.4e+38 -3.4e+38 -3.4e+38 -3.4e+38 -3.4e+38 -3.4e+38 -3.4e+38 -3.4e+38 -3.4e+38 -3.4e+38 -3.4e+38 -3.4e+38 -3.4e+38 -3.4e+38 -3.4e+38 -3.4e+38 -3.4e+38 -3.4e+38 -3.4e+38 -3.4e+38 -3.4e+38 -3.4e+38 -3.4e+38 -3.4e+38 -3.4e+38 -3.4e+38 -3.4e+38 -3.4e+38 -3.4e+38 -3.4e+38 -3.4e+38 -3.4e+38 -3.4e+38 -3.4e+38 -3.4e+38 -3.4e+38 3225.369140625 3225 3224.16845703125 3222.95141601562 3221.74145507812 3220.39306640625 3218.73901367188 3217.04931640625 3215.40454101562 3213.43505859375 3211.41284179688 3209.6044921875 3207.662109375 3205.4091796875 3203.140625 3201.24536132812 3199.44384765625 3197.87158203125 3196.63110351562 3195.6689453125 3194.89477539062 3194.37451171875 3193.9638671875 3193.57495117188 3193.14501953125 3192.76025390625 3192.5205078125 3192.29736328125 3192.11669921875 3192.00073242188 3191.87060546875 3191.74780273438 3191.64721679688 3191.56298828125 3191.52172851562 3191.47607421875 3191.44287109375 3191.4423828125 3191.51953125 3191.6953125 3191.85375976562 3192.08764648438 3192.32861328125 3192.53637695312 3192.701171875 3192.78637695312 3192.73828125 3192.45166015625 3191.97192382812 3191.38232421875 3190.638671875 3189.61889648438 3188.3828125 3187.08471679688 3185.54638671875 3183.76684570312 3181.97265625 3180.27856445312 3178.42138671875 3176.44213867188 3174.50048828125 3172.59619140625 3170.10009765625 3167.08666992188 3164.08178710938 3161.19921875 3158.240234375 3155.55444335938 3153.17309570312 3150.75634765625 3148.01904296875 3145.09252929688 3142.78784179688 3143.10375976562 3146.30126953125 3149.17797851562 3151.42749023438 3153.78344726562 3156.048828125 3158.17724609375 3160.29614257812 3162.71923828125 3165.16528320312 3167.45361328125 3169.59936523438 3171.93896484375 3174.17163085938 3176.03491210938 3177.89819335938 3180.1669921875 3182.57348632812 3184.595703125 3186.5166015625 3188.45849609375 3190.23413085938 3191.7978515625 3193.50122070312 3195.43896484375 3197.48193359375 3199.41455078125 3201.56982421875 3203.79345703125 3205.90991210938 3207.90551757812 3210.61181640625 3214.04418945312 3217.29541015625 3220.53051757812 3224.02514648438 3227.22192382812 3229.87255859375 3233.20483398438 3238.09936523438 3243.58959960938 3248.24731445312 3252.7978515625 3257.07202148438 3260.71459960938 3263.79467773438 3266.96118164062 3270.00561523438 3272.81225585938 3275.38549804688 3278.17504882812 3280.88989257812 3283.1611328125 3285.24780273438 3287.3828125 3289.20092773438 3290.66528320312 3292.16235351562 3293.75756835938 3295.22021484375 3296.53857421875 3298.10034179688 3299.904296875 3301.61376953125 -3.4e+38 -3.4e+38 -3.4e+38 -3.4e+38 -3.4e+38 -3.4e+38
-3.4e+38 -3.4e+38 -3.4e+38 -3.4e+38 -3.4e+38 -3.4e+38 -3.4e+38 -3.4e+38 -3.4e+38 -3.4e+38 -3.4e+38 -3.4e+38 -3.4e+38 -3.4e+38 -3.4e+38 -3.4e+38 -3.4e+38 -3.4e+38 -3.4e+38 -3.4e+38 -3.4e+38 -3.4e+38 -3.4e+38 -3.4e+38 -3.4e+38 -3.4e+38 -3.4e+38 -3.4e+38 -3.4e+38 -3.4e+38 -3.4e+38 -3.4e+38 -3.4e+38 -3.4e+38 -3.4e+38 -3.4e+38 -3.4e+38 -3.4e+38 -3.4e+38 -3.4e+38 -3.4e+38 -3.4e+38 -3.4e+38 -3.4e+38 -3.4e+38 -3.4e+38 -3.4e+38 -3.4e+38 -3.4e+38 -3.4e+38 -3.4e+38 -3.4e+38 -3.4e+38 -3.4e+38 -3.4e+38 -3.4e+38 -3.4e+38 -3.4e+38 -3.4e+38 -3.4e+38 -3.4e+38 -3.4e+38 -3.4e+38 -3.4e+38 -3.4e+38 -3.4e+38 -3.4e+38 -3.4e+38 -3.4e+38 -3.4e+38 -3.4e+38 -3.4e+38 -3.4e+38 -3.4e+38 -3.4e+38 -3.4e+38 3225.56005859375 3225.27392578125 3224.45458984375 3223.21215820312 3222.00048828125 3220.71069335938 3219.12353515625 3217.47338867188 3215.83666992188 3213.9267578125 3211.95629882812 3210.22290039062 3208.384765625 3206.34765625 3204.29174804688 3202.56469726562 3200.78955078125 3199.17114257812 3197.9111328125 3196.95825195312 3196.20239257812 3195.68017578125 3195.25122070312 3194.87768554688 3194.5048828125 3194.21484375 3193.97802734375 3193.73486328125 3193.51904296875 3193.43334960938 3193.38110351562 3193.31469726562 3193.248046875 3193.18969726562 3193.17211914062 3193.09790039062 3193.04760742188 3193.11108398438 3193.21142578125 3193.42993164062 3193.72485351562 3193.9697265625 3194.24389648438 3194.47705078125 3194.63500976562 3194.75073242188 3194.7578125 3194.56713867188 3194.21484375 3193.77734375 3193.11328125 3192.07788085938 3190.869140625 3189.58618164062 3188.02319335938 3186.23120117188 3184.29956054688 3182.4375 3180.4677734375 3178.47485351562 3176.58544921875 3174.7666015625 3172.580078125 3169.87377929688 3166.7890625 3163.66137695312 3160.4033203125 3157.5234375 3155.13134765625 3152.68920898438 3150.03271484375 3147.26538085938 3145.25219726562 3145.81298828125 3148.720703125 3151.34106445312 3153.55615234375 3155.8720703125 3158.1806640625 3160.44116210938 3162.65258789062 3165.14501953125 3167.63500976562 3169.87670898438 3171.95043945312 3174.13598632812 3176.29858398438 3178.10375976562 3179.85498046875 3181.93432617188 3184.19506835938 3186.11303710938 3187.97534179688 3189.91870117188 3191.767578125 3193.35302734375 3195.2109375 3197.3623046875 3199.54028320312 3201.62548828125 3203.99658203125 3206.357421875 3208.47216796875 3210.64916992188 3213.35327148438 3216.28735351562 3219.11547851562 3222.38061523438 3225.95751953125 3229.02783203125 3231.77661132812 3235.66577148438 3240.79663085938 3246.00415039062 3250.52172851562 3255.04321289062 3259.12744140625 3262.59594726562 3265.66357421875 3268.97973632812 3272.23803710938 3275.07373046875 3277.66259765625 3280.466796875 3283.11840820312 3285.33642578125 3287.48876953125 3289.666015625 3291.52294921875 3293.01708984375 3294.55444335938 3296.18383789062 3297.69165039062 3299.04858398438 3300.60205078125 3302.33520507812 3303.958984375 3305.25903320312 -3.4e+38 -3.4e+38 -3.4e+38 -3.4e+38 -3.4e+38
-3.4e+38 -3.4e+38 -3.4e+38 -3.4e+38 -3.4e+38 -3.4e+38 -3.4e+38 -3.4e+38 -3.4e+38 -3.4e+38 -3.4e+38 -3.4e+38 -3.4e+38 -3.4e+38 -3.4e+38 -3.4e+38 -3.4e+38 -3.4e+38 -3.4e+38 -3.4e+38 -3.4e+38 -3.4e+38 -3.4e+38 -3.4e+38 -3.4e+38 -3.4e+38 -3.4e+38 -3.4e+38 -3.4e+38 -3.4e+38 -3.4e+38 -3.4e+38 -3.4e+38 -3.4e+38 -3.4e+38 -3.4e+38 -3.4e+38 -3.4e+38 -3.4e+38 -3.4e+38 -3.4e+38 -3.4e+38 -3.4e+38 -3.4e+38 -3.4e+38 -3.4e+38 -3.4e+38 -3.4e+38 -3.4e+38 -3.4e+38 -3.4e+38 -3.4e+38 -3.4e+38 -3.4e+38 -3.4e+38 -3.4e+38 -3.4e+38 -3.4e+38 -3.4e+38 -3.4e+38 -3.4e+38 -3.4e+38 -3.4e+38 -3.4e+38 -3.4e+38 -3.4e+38 -3.4e+38 -3.4e+38 -3.4e+38 -3.4e+38 -3.4e+38 -3.4e+38 -3.4e+38 -3.4e+38 -3.4e+38 -3.4e+38 3225.79858398438 3225.65771484375 3224.89086914062 3223.61059570312 3222.35400390625 3221.10864257812 3219.53540039062 3217.93139648438 3216.28344726562 3214.3837890625 3212.4931640625 3210.84716796875 3209.10400390625 3207.22924804688 3205.36596679688 3203.78149414062 3202.13500976562 3200.56640625 3199.31274414062 3198.39770507812 3197.64428710938 3197.0703125 3196.61303710938 3196.24780273438 3195.91650390625 3195.658203125 3195.42211914062 3195.181640625 3194.97436523438 3194.90380859375 3194.88989257812 3194.87109375 3194.8623046875 3194.83349609375 3194.8203125 3194.7822265625 3194.74951171875 3194.75903320312 3194.86254882812 3195.1552734375 3195.53759765625 3195.91772460938 3196.2646484375 3196.53173828125 3196.7060546875 3196.8544921875 3196.92797851562 3196.76293945312 3196.43041992188 3196.07470703125 3195.50439453125 3194.56860351562 3193.45532226562 3192.29907226562 3190.79833984375 3188.86279296875 3186.71728515625 3184.66967773438 3182.49047851562 3180.44409179688 3178.58374023438 3176.79077148438 3174.66796875 3172.1943359375 3169.32397460938 3166.15478515625 3162.72192382812 3159.56005859375 3156.96533203125 3154.38305664062 3151.67944335938 3149.12182617188 3147.53930664062 3148.31713867188 3151.01806640625 3153.57763671875 3155.72314453125 3158.07666015625 3160.54077148438 3162.88061523438 3165.1162109375 3167.61181640625 3170.072265625 3172.224609375 3174.21801757812 3176.38354492188 3178.44189453125 3180.16577148438 3181.861328125 3183.80102539062 3185.80004882812 3187.6123046875 3189.45336914062 3191.31762695312 3193.17602539062 3194.92919921875 3197.01538085938 3199.31323242188 3201.61499023438 3203.85327148438 3206.37084960938 3208.90966796875 3211.17431640625 3213.4716796875 3216.17553710938 3218.93701171875 3221.56176757812 3224.7998046875 3228.36987304688 3231.37939453125 3234.2724609375 3238.30395507812 3243.27075195312 3248.24829101562 3252.75170898438 3257.19287109375 3261.0205078125 3264.34936523438 3267.42626953125 3270.92138671875 3274.42895507812 3277.40063476562 3280.00390625 3282.76220703125 3285.39868164062 3287.61791992188 3289.8017578125 3291.978515625 3293.84912109375 3295.32739257812 3296.82421875 3298.44458007812 3300.01928710938 3301.42016601562 3302.97094726562 3304.64135742188 3306.18798828125 3307.3896484375 -3.4e+38 -3.4e+38 -3.4e+38 -3.4e+38 -3.4e+38
-3.4e+38 -3.4e+38 -3.4e+38 -3.4e+38 -3.4e+38 -3.4e+38 -3.4e+38 -3.4e+38 -3.4e+38 -3.4e+38 -3.4e+38 -3.4e+38 -3.4e+38 -3.4e+38 -3.4e+38 -3.4e+38 -3.4e+38 -3.4e+38 -3.4e+38 -3.4e+38 -3.4e+38 -3.4e+38 -3.4e+38 -3.4e+38 -3.4e+38 -3.4e+38 -3.4e+38 -3.4e+38 -3.4e+38 -3.4e+38 -3.4e+38 -3.4e+38 -3.4e+38 -3.4e+38 -3.4e+38 -3.4e+38 -3.4e+38 -3.4e+38 -3.4e+38 -3.4e+38 -3.4e+38 -3.4e+38 -3.4e+38 -3.4e+38 -3.4e+38 -3.4e+38 -3.4e+38 -3.4e+38 -3.4e+38 -3.4e+38 -3.4e+38 -3.4e+38 -3.4e+38 -3.4e+38 -3.4e+38 -3.4e+38 -3.4e+38 -3.4e+38 -3.4e+38 -3.4e+38 -3.4e+38 -3.4e+38 -3.4e+38 -3.4e+38 -3.4e+38 -3.4e+38 -3.4e+38 -3.4e+38 -3.4e+38 -3.4e+38 -3.4e+38 -3.4e+38 -3.4e+38 -3.4e+38 -3.4e+38 -3.4e+38 -3.4e+38 3226.16479492188 3225.48974609375 3224.28540039062 3222.98559570312 3221.5869140625 3220.01611328125 3218.45825195312 3216.77197265625 3214.86767578125 3213.001953125 3211.39770507812 3209.73950195312 3207.9482421875 3206.23266601562 3204.79809570312 3203.3388671875 3201.96728515625 3200.81860351562 3199.89184570312 3199.07592773438 3198.46459960938 3198.00903320312 3197.6396484375 3197.30786132812 3197.06469726562 3196.84301757812 3196.6083984375 3196.46240234375 3196.39990234375 3196.39819335938 3196.41748046875 3196.4580078125 3196.474609375 3196.47216796875 3196.47802734375 3196.50732421875 3196.5625 3196.68920898438 3197.0517578125 3197.53588867188 3198.00756835938 3198.4072265625 3198.71411132812 3198.9814453125 3199.10180664062 3199.11669921875 3198.9423828125 3198.6201171875 3198.25952148438 3197.72924804688 3196.89306640625 3195.953125 3195.09448242188 3193.79174804688 3191.697265625 3189.32446289062 3187.08471679688 3184.6845703125 3182.45336914062 3180.56909179688 3178.76000976562 3176.5263671875 3174.05224609375 3171.51098632812 3168.5380859375 3164.9853515625 3161.59692382812 3158.80615234375 3156.12841796875 3153.27783203125 3150.61840820312 3149.4423828125 3150.66821289062 3153.30126953125 3155.79345703125 3158.01879882812 3160.50415039062 3163.04760742188 3165.44189453125 3167.6650390625 3170.09252929688 3172.462890625 3174.52978515625 3176.51123046875 3178.68603515625 3180.6845703125 3182.34936523438 3183.99096679688 3185.76538085938 3187.599609375 3189.29125976562 3190.98999023438 3192.6962890625 3194.51733398438 3196.44189453125 3198.80688476562 3201.27124023438 3203.66967773438 3205.99194335938 3208.607421875 3211.37524414062 3213.89013671875 3216.36254882812 3219.15380859375 3222.0244140625 3224.751953125 3227.89013671875 3231.22338867188 3234.18334960938 3237.0869140625 3240.88916015625 3245.498046875 3250.26586914062 3254.6416015625 3258.98486328125 3262.74462890625 3266.05859375 3269.23657226562 3272.95434570312 3276.68823242188 3279.77465820312 3282.35693359375 3285.09692382812 3287.78002929688 3290.00146484375 3292.123046875 3294.21704101562 3296.05419921875 3297.52392578125 3299.0439453125 3300.63647460938 3302.2158203125 3303.6533203125 3305.21533203125 3306.7822265625 3308.1787109375 3309.32275390625 -3.4e+38 -3.4e+38 -3.4e+38 -3.4e+38 -3.4e+38
-3.4e+38 -3.4e+38 -3.4e+38 -3.4e+38 -3.4e+38 -3.4e+38 -3.4e+38 -3.4e+38 -3.4e+38 -3.4e+38 -3.4e+38 -3.4e+38 -3.4e+38 -3.4e+38 -3.4e+38 -3.4e+38 -3.4e+38 -3.4e+38 -3.4e+38 -3.4e+38 -3.4e+38 -3.4e+38 -3.4e+38 -3.4e+38 -3.4e+38 -3.4e+38 -3.4e+38 -3.4e+38 -3.4e+38 -3.4e+38 -3.4e+38 -3.4e+38 -3.4e+38 -3.4e+38 -3.4e+38 -3.4e+38 -3.4e+38 -3.4e+38 -3.4e+38 -3.4e+38 -3.4e+38 -3.4e+38 -3.4e+38 -3.4e+38 -3.4e+38 -3.4e+38 -3.4e+38 -3.4e+38 -3.4e+38 -3.4e+38 -3.4e+38 -3.4e+38 -3.4e+38 -3.4e+38 -3.4e+38 -3.4e+38 -3.4e+38 -3.4e+38 -3.4e+38 -3.4e+38 -3.4e+38 -3.4e+38 -3.4e+38 -3.4e+38 -3.4e+38 -3.4e+38 -3.4e+38 -3.4e+38 -3.4e+38 -3.4e+38 -3.4e+38 -3.4e+38 -3.4e+38 -3.4e+38 -3.4e+38 -3.4e+38 -3.4e+38 3226.791015625 3226.22387695312 3225.09692382812 3223.73266601562 3222.13427734375 3220.52197265625 3219.00170898438 3217.2978515625 3215.4287109375 3213.58081054688 3211.99169921875 3210.35229492188 3208.60864257812 3206.97778320312 3205.6484375 3204.3115234375 3203.17431640625 3202.2509765625 3201.37133789062 3200.51196289062 3199.85498046875 3199.380859375 3198.98388671875 3198.65966796875 3198.44409179688 3198.2451171875 3198.0390625 3197.91284179688 3197.8740234375 3197.869140625 3197.88500976562 3197.95483398438 3198.02416992188 3198.07397460938 3198.16088867188 3198.2685546875 3198.44555664062 3198.6904296875 3199.14306640625 3199.71362304688 3200.24755859375 3200.77172851562 3201.19677734375 3201.44140625 3201.46142578125 3201.30810546875 3201.13525390625 3200.91870117188 3200.47973632812 3199.86694335938 3199.03247070312 3198.201171875 3197.40209960938 3196.27612304688 3194.4130859375 3192.01538085938 3189.67211914062 3187.13525390625 3184.669921875 3182.5546875 3180.67797851562 3178.39526367188 3175.80493164062 3173.42065429688 3170.69067382812 3167.21215820312 3163.65747070312 3160.69140625 3157.83520507812 3154.93383789062 3152.28466796875 3151.5146484375 3153.10473632812 3155.59887695312 3158.1396484375 3160.4736328125 3163.0908203125 3165.7060546875 3168.11840820312 3170.29467773438 3172.57666015625 3174.86669921875 3176.90185546875 3178.87426757812 3181.00170898438 3182.935546875 3184.470703125 3186.05029296875 3187.77319335938 3189.54174804688 3191.10375976562 3192.6416015625 3194.1552734375 3195.92163085938 3198.06494140625 3200.54736328125 3203.09252929688 3205.56860351562 3208.02294921875 3210.806640625 3213.74096679688 3216.5166015625 3219.25415039062 3222.22290039062 3225.3154296875 3228.23315429688 3231.21362304688 3234.13720703125 3236.943359375 3239.65649414062 3243.14990234375 3247.58837890625 3252.12280273438 3256.19067382812 3260.49145507812 3264.42211914062 3267.85083007812 3271.16040039062 3275.06225585938 3278.896484375 3281.96655273438 3284.6083984375 3287.47729492188 3290.22924804688 3292.37377929688 3294.34814453125 3296.33935546875 3298.13500976562 3299.63134765625 3301.19921875 3302.79663085938 3304.36059570312 3305.81030273438 3307.36547851562 3308.8427734375 3310.13330078125 3311.2646484375 3312.43408203125 -3.4e+38 -3.4e+38 -3.4e+38 -3.4e+38
-3.4e+38 -3.4e+38 -3.4e+38 -3.4e+38 -3.4e+38 -3.4e+38 -3.4e+38 -3.4e+38 -3.4e+38 -3.4e+38 -3.4e+38 -3.4e+38 -3.4e+38 -3.4e+38 -3.4e+38 -3.4e+38 -3.4e+38 -3.4e+38 -3.4e+38 -3.4e+38 -3.4e+38 -3.4e+38 -3.4e+38 -3.4e+38 -3.4e+38 -3.4e+38 -3.4e+38 -3.4e+38 -3.4e+38 -3.4e+38 -3.4e+38 -3.4e+38 -3.4e+38 -3.4e+38 -3.4e+38 -3.4e+38 -3.4e+38 -3.4e+38 -3.4e+38 -3.4e+38 -3.4e+38 -3.4e+38 -3.4e+38 -3.4e+38 -3.4e+38 -3.4e+38 -3.4e+38 -3.4e+38 -3.4e+38 -3.4e+38 -3.4e+38 -3.4e+38 -3.4e+38 -3.4e+38 -3.4e+38 -3.4e+38 -3.4e+38 -3.4e+38 -3.4e+38 -3.4e+38 -3.4e+38 -3.4e+38 -3.4e+38 -3.4e+38 -3.4e+38 -3.4e+38 -3.4e+38 -3.4e+38 -3.4e+38 -3.4e+38 -3.4e+38 -3.4e+38 -3.4e+38 -3.4e+38 -3.4e+38 -3.4e+38 -3.4e+38 3227.64184570312 3227.18212890625 3226.03784179688 3224.49755859375 3222.75390625 3221.11303710938 3219.541015625 3217.81469726562 3215.9658203125 3214.19946289062 3212.65014648438 3210.98803710938 3209.29150390625 3207.71411132812 3206.4404296875 3205.20581054688 3204.1943359375 3203.43408203125 3202.74731445312 3201.94604492188 3201.2177734375 3200.71264648438 3200.33154296875 3200.02197265625 3199.78979492188 3199.63500976562 3199.46728515625 3199.3359375 3199.29272460938 3199.28442382812 3199.30004882812 3199.37084960938 3199.490234375 3199.6162109375 3199.77270507812 3200.01513671875 3200.30834960938 3200.7021484375 3201.31860351562 3201.9951171875 3202.65771484375 3203.44213867188 3204.1083984375 3204.0751953125 3203.72338867188 3203.56030273438 3203.48657226562 3203.32104492188 3202.86279296875 3202.1552734375 3201.14599609375 3200.1025390625 3199.17919921875 3198.017578125 3196.47924804688 3194.55346679688 3192.31176757812 3189.65747070312 3187.05224609375 3184.755859375 3182.71240234375 3180.34204101562 3177.62670898438 3175.12036132812 3172.51953125 3169.255859375 3165.63330078125 3162.57739257812 3159.61767578125 3156.68969726562 3154.298828125 3153.85375976562 3155.58911132812 3158.15942382812 3160.67602539062 3163.07250976562 3165.77587890625 3168.455078125 3170.73901367188 3172.7607421875 3174.99389648438 3177.27026367188 3179.28930664062 3181.29028320312 3183.29809570312 3184.97509765625 3186.41772460938 3188.01708984375 3189.78637695312 3191.53564453125 3193.05737304688 3194.57666015625 3196.1591796875 3197.91040039062 3199.93432617188 3202.34106445312 3204.76782226562 3207.27270507812 3209.89184570312 3212.93872070312 3216.01586914062 3218.85815429688 3221.806640625 3225.16625976562 3228.60424804688 3231.51879882812 3234.17553710938 3236.83544921875 3239.48217773438 3242.01342773438 3245.39990234375 3249.83764648438 3254.05346679688 3257.77270507812 3262.13671875 3266.2216796875 3269.76123046875 3273.19653320312 3277.1162109375 3280.84448242188 3283.8427734375 3286.68017578125 3289.765625 3292.55493164062 3294.60131835938 3296.47778320312 3298.400390625 3300.20434570312 3301.73168945312 3303.33837890625 3304.96801757812 3306.52587890625 3307.94970703125 3309.48681640625 3310.984375 3312.25024414062 3313.33129882812 3314.4287109375 -3.4e+38 -3.4e+38 -3.4e+38 -3.4e+38
-3.4e+38 -3.4e+38 -3.4e+38 -3.4e+38 -3.4e+38 -3.4e+38 -3.4e+38 -3.4e+38 -3.4e+38 -3.4e+38 -3.4e+38 -3.4e+38 -3.4e+38 -3.4e+38 -3.4e+38 -3.4e+38 -3.4e+38 -3.4e+38 -3.4e+38 -3.4e+38 -3.4e+38 -3.4e+38 -3.4e+38 -3.4e+38 -3.4e+38 -3.4e+38 -3.4e+38 -3.4e+38 -3.4e+38 -3.4e+38 -3.4e+38 -3.4e+38 -3.4e+38 -3.4e+38 -3.4e+38 -3.4e+38 -3.4e+38 -3.4e+38 -3.4e+38 -3.4e+38 -3.4e+38 -3.4e+38 -3.4e+38 -3.4e+38 -3.4e+38 -3.4e+38 -3.4e+38 -3.4e+38 -3.4e+38 -3.4e+38 -3.4e+38 -3.4e+38 -3.4e+38 -3.4e+38 -3.4e+38 -3.4e+38 -3.4e+38 -3.4e+38 -3.4e+38 -3.4e+38 -3.4e+38 -3.4e+38 -3.4e+38 -3.4e+38 -3.4e+38 -3.4e+38 -3.4e+38 -3.4e+38 -3.4e+38 -3.4e+38 -3.4e+38 -3.4e+38 -3.4e+38 -3.4e+38 -3.4e+38 -3.4e+38 -3.4e+38 3228.87377929688 3228.33618164062 3227.2255859375 3225.53076171875 3223.60205078125 3221.79296875 3220.09375 3218.34887695312 3216.53491210938 3214.82421875 3213.29638671875 3211.6474609375 3210.00561523438 3208.49682617188 3207.2998046875 3206.158203125 3205.15209960938 3204.40405273438 3203.85400390625 3203.2099609375 3202.51318359375 3201.99877929688 3201.63940429688 3201.32592773438 3201.08642578125 3200.95727539062 3200.86352539062 3200.75805664062 3200.681640625 3200.6591796875 3200.6982421875 3200.80126953125 3200.92138671875 3201.15698242188 3201.46264648438 3201.86010742188 3202.271484375 3202.75122070312 3203.4404296875 3204.22534179688 3205.04711914062 3205.98193359375 3206.82568359375 3206.5400390625 3205.74633789062 3205.77587890625 3205.97631835938 3205.76049804688 3205.2353515625 3204.3603515625 3203.19360351562 3201.97094726562 3200.84716796875 3199.52905273438 3198.07568359375 3196.58984375 3194.783203125 3192.23583984375 3189.44848632812 3187.0625 3184.90942382812 3182.24853515625 3179.38232421875 3176.82763671875 3174.1005859375 3170.9482421875 3167.54174804688 3164.4560546875 3161.42211914062 3158.47583007812 3156.30078125 3156.203125 3158.06494140625 3160.751953125 3163.42822265625 3165.90209960938 3168.63110351562 3171.15112304688 3173.10888671875 3175.02026367188 3177.28930664062 3179.61547851562 3181.65234375 3183.55297851562 3185.27172851562 3186.84375 3188.30004882812 3189.93920898438 3191.70947265625 3193.54565429688 3195.1708984375 3196.80981445312 3198.57104492188 3200.36938476562 3202.19946289062 3204.28540039062 3206.45556640625 3208.96069335938 3211.79931640625 3215.03784179688 3218.21215820312 3221.04833984375 3224.12915039062 3227.75244140625 3231.384765625 3234.21533203125 3236.72045898438 3239.3359375 3241.94995117188 3244.64404296875 3248.34521484375 3252.73266601562 3256.64135742188 3260.076171875 3264.17895507812 3268.20556640625 3271.85302734375 3275.30395507812 3279.095703125 3282.68408203125 3285.63842773438 3288.61474609375 3291.78588867188 3294.54736328125 3296.59326171875 3298.51293945312 3300.41015625 3302.22265625 3303.82202148438 3305.52172851562 3307.17333984375 3308.71044921875 3310.16723632812 3311.71313476562 3313.22509765625 3314.5029296875 3315.5126953125 3316.521484375 -3.4e+38 -3.4e+38 -3.4e+38 -3.4e+38
-3.4e+38 -3.4e+38 -3.4e+38 -3.4e+38 -3.4e+38 -3.4e+38 -3.4e+38 -3.4e+38 -3.4e+38 -3.4e+38 -3.4e+38 -3.4e+38 -3.4e+38 -3.4e+38 -3.4e+38 -3.4e+38 -3.4e+38 -3.4e+38 -3.4e+38 -3.4e+38 -3.4e+38 -3.4e+38 -3.4e+38 -3.4e+38 -3.4e+38 -3.4e+38 -3.4e+38 -3.4e+38 -3.4e+38 -3.4e+38 -3.4e+38 -3.4e+38 -3.4e+38 -3.4e+38 -3.4e+38 -3.4e+38 -3.4e+38 -3.4e+38 -3.4e+38 -3.4e+38 -3.4e+38 -3.4e+38 -3.4e+38 -3.4e+38 -3.4e+38 -3.4e+38 -3.4e+38 -3.4e+38 -3.4e+38 -3.4e+38 -3.4e+38 -3.4e+38 -3.4e+38 -3.4e+38 -3.4e+38 -3.4e+38 -3.4e+38 -3.4e+38 -3.4e+38 -3.4e+38 -3.4e+38 -3.4e+38 -3.4e+38 -3.4e+38 -3.4e+38 -3.4e+38 -3.4e+38 -3.4e+38 -3.4e+38 -3.4e+38 -3.4e+38 -3.4e+38 -3.4e+38 -3.4e+38 -3.4e+38 -3.4e+38 -3.4e+38 -3.4e+38 3229.53369140625 3228.50708007812 3226.70922851562 3224.56982421875 3222.52075195312 3220.69995117188 3218.96362304688 3217.24560546875 3215.56079101562 3214.02172851562 3212.404296875 3210.83374023438 3209.4365234375 3208.29565429688 3207.1416015625 3206.13671875 3205.39965820312 3204.86059570312 3204.34130859375 3203.78271484375 3203.27783203125 3202.9052734375 3202.60913085938 3202.384765625 3202.25463867188 3202.22045898438 3202.16577148438 3202.12182617188 3202.08544921875 3202.09375 3202.20361328125 3202.3798828125 3202.68627929688 3203.10595703125 3203.6318359375 3204.1357421875 3204.67114257812 3205.38037109375 3206.2451171875 3207.09057617188 3207.8603515625 3208.41333007812 3208.06420898438 3207.48999023438 3207.69287109375 3207.97216796875 3207.84301757812 3207.34057617188 3206.3203125 3205.0302734375 3203.8173828125 3202.60913085938 3201.1494140625 3199.66455078125 3198.23388671875 3196.78393554688 3194.55859375 3191.66015625 3189.13256835938 3186.73901367188 3183.92431640625 3181.03149414062 3178.35620117188 3175.53344726562 3172.56396484375 3169.39208984375 3166.19213867188 3163.00830078125 3160.08911132812 3158.1123046875 3158.38256835938 3160.66650390625 3163.57153320312 3166.29833984375 3168.80688476562 3171.34790039062 3173.50708007812 3175.32641601562 3177.181640625 3179.46630859375 3181.81591796875 3183.732421875 3185.40478515625 3187.05419921875 3188.61791992188 3190.06103515625 3191.7041015625 3193.51000976562 3195.42700195312 3197.27612304688 3199.205078125 3201.15454101562 3203.01586914062 3204.75073242188 3206.59790039062 3208.60815429688 3211.03637695312 3213.89184570312 3217.13500976562 3220.34130859375 3223.24438476562 3226.3935546875 3229.97143554688 3233.48486328125 3236.30908203125 3239.0009765625 3241.724609375 3244.59423828125 3247.779296875 3251.85986328125 3256.12939453125 3259.84838867188 3263.14013671875 3266.70922851562 3270.51904296875 3274.26879882812 3277.5458984375 3281.03393554688 3284.46313476562 3287.37866210938 3290.34619140625 3293.49853515625 3296.22509765625 3298.3701171875 3300.44799804688 3302.390625 3304.22509765625 3305.90600585938 3307.69653320312 3309.39965820312 3310.95458984375 3312.40283203125 3313.96899414062 3315.51684570312 3316.78735351562 3317.818359375 3318.93237304688 -3.4e+38 -3.4e+38 -3.4e+38 -3.4e+38
-3.4e+38 -3.4e+38 -3.4e+38 -3.4e+38 -3.4e+38 -3.4e+38 -3.4e+38 -3.4e+38 -3.4e+38 -3.4e+38 -3.4e+38 -3.4e+38 -3.4e+38 -3.4e+38 -3.4e+38 -3.4e+38 -3.4e+38 -3.4e+38 -3.4e+38 -3.4e+38 -3.4e+38 -3.4e+38 -3.4e+38 -3.4e+38 -3.4e+38 -3.4e+38 -3.4e+38 -3.4e+38 -3.4e+38 -3.4e+38 -3.4e+38 -3.4e+38 -3.4e+38 -3.4e+38 -3.4e+38 -3.4e+38 -3.4e+38 -3.4e+38 -3.4e+38 -3.4e+38 -3.4e+38 -3.4e+38 -3.4e+38 -3.4e+38 -3.4e+38 -3.4e+38 -3.4e+38 -3.4e+38 -3.4e+38 -3.4e+38 -3.4e+38 -3.4e+38 -3.4e+38 -3.4e+38 -3.4e+38 -3.4e+38 -3.4e+38 -3.4e+38 -3.4e+38 -3.4e+38 -3.4e+38 -3.4e+38 -3.4e+38 -3.4e+38 -3.4e+38 -3.4e+38 -3.4e+38 -3.4e+38 -3.4e+38 -3.4e+38 -3.4e+38 -3.4e+38 -3.4e+38 -3.4e+38 -3.4e+38 -3.4e+38 -3.4e+38 -3.4e+38 3230.71704101562 3229.66162109375 3227.85131835938 3225.6044921875 3223.37280273438 3221.45678710938 3219.67138671875 3218.02075195312 3216.39038085938 3214.88427734375 3213.29467773438 3211.78125 3210.505859375 3209.37426757812 3208.18774414062 3207.23876953125 3206.59643554688 3206.05322265625 3205.54296875 3205.06127929688 3204.60083007812 3204.22900390625 3203.93432617188 3203.72778320312 3203.60546875 3203.55151367188 3203.54077148438 3203.52734375 3203.51049804688 3203.5361328125 3203.61962890625 3203.80737304688 3204.126953125 3204.56982421875 3205.19067382812 3205.78881835938 3206.42163085938 3207.20751953125 3207.99291992188 3208.62377929688 3209.12890625 3209.34643554688 3209.13891601562 3209.03100585938 3209.16943359375 3209.31005859375 3209.15380859375 3208.72509765625 3207.947265625 3206.857421875 3205.5771484375 3204.26220703125 3202.76733398438 3201.21923828125 3199.76196289062 3198.24633789062 3196.169921875 3193.56469726562 3190.97802734375 3188.4296875 3185.49853515625 3182.49658203125 3179.73974609375 3176.828125 3173.75146484375 3170.56567382812 3167.4091796875 3164.17578125 3161.490234375 3160.5205078125 3161.52905273438 3163.79125976562 3166.64990234375 3169.318359375 3171.52880859375 3173.62231445312 3175.58618164062 3177.3408203125 3179.17553710938 3181.41674804688 3183.68383789062 3185.42626953125 3186.99243164062 3188.63256835938 3190.2373046875 3191.673828125 3193.31640625 3195.216796875 3197.322265625 3199.40209960938 3201.6884765625 3203.88793945312 3205.7421875 3207.42919921875 3209.36083984375 3211.51220703125 3213.76245117188 3216.28076171875 3219.310546875 3222.54028320312 3225.43530273438 3228.51416015625 3231.95190429688 3235.3095703125 3238.17602539062 3241.126953125 3244.16748046875 3247.53735351562 3251.19506835938 3255.39233398438 3259.50927734375 3263.16357421875 3266.44995117188 3269.86206054688 3273.63012695312 3277.29345703125 3280.15258789062 3283.03344726562 3286.18627929688 3288.94458007812 3291.78198242188 3294.93432617188 3297.82299804688 3300.14770507812 3302.34619140625 3304.37084960938 3306.25805664062 3307.99072265625 3309.8232421875 3311.60595703125 3313.17700195312 3314.615234375 3316.18408203125 3317.76538085938 3319.1318359375 3320.32934570312 -3.4e+38 -3.4e+38 -3.4e+38 -3.4e+38 -3.4e+38
-3.4e+38 -3.4e+38 -3.4e+38 -3.4e+38 -3.4e+38 -3.4e+38 -3.4e+38 -3.4e+38 -3.4e+38 -3.4e+38 -3.4e+38 -3.4e+38 -3.4e+38 -3.4e+38 -3.4e+38 -3.4e+38 -3.4e+38 -3.4e+38 -3.4e+38 -3.4e+38 -3.4e+38 -3.4e+38 -3.4e+38 -3.4e+38 -3.4e+38 -3.4e+38 -3.4e+38 -3.4e+38 -3.4e+38 -3.4e+38 -3.4e+38 -3.4e+38 -3.4e+38 -3.4e+38 -3.4e+38 -3.4e+38 -3.4e+38 -3.4e+38 -3.4e+38 -3.4e+38 -3.4e+38 -3.4e+38 -3.4e+38 -3.4e+38 -3.4e+38 -3.4e+38 -3.4e+38 -3.4e+38 -3.4e+38 -3.4e+38 -3.4e+38 -3.4e+38 -3.4e+38 -3.4e+38 -3.4e+38 -3.4e+38 -3.4e+38 -3.4e+38 -3.4e+38 -3.4e+38 -3.4e+38 -3.4e+38 -3.4e+38 -3.4e+38 -3.4e+38 -3.4e+38 -3.4e+38 -3.4e+38 -3.4e+38 -3.4e+38 -3.4e+38 -3.4e+38 -3.4e+38 -3.4e+38 -3.4e+38 -3.4e+38 -3.4e+38 -3.4e+38 3231.84912109375 3230.78930664062 3229.01123046875 3226.69580078125 3224.31884765625 3222.33837890625 3220.453125 3218.77197265625 3217.22802734375 3215.82739257812 3214.30810546875 3212.84130859375 3211.611328125 3210.48120117188 3209.34423828125 3208.45141601562 3207.8408203125 3207.2841796875 3206.70434570312 3206.23193359375 3205.86181640625 3205.5224609375 3205.26904296875 3205.09033203125 3204.97998046875 3204.8935546875 3204.86987304688 3204.853515625 3204.87255859375 3204.97924804688 3205.12744140625 3205.31665039062 3205.57495117188 3206.00366210938 3206.67602539062 3207.3544921875 3207.97680664062 3208.70776367188 3209.35498046875 3209.86328125 3210.26782226562 3210.451171875 3210.39575195312 3210.36376953125 3210.46118164062 3210.47607421875 3210.24584960938 3209.76953125 3209.13305664062 3208.302734375 3207.16552734375 3205.80639648438 3204.26000976562 3202.66967773438 3201.13427734375 3199.5458984375 3197.55151367188 3195.22119140625 3192.76928710938 3190.04541015625 3186.89086914062 3183.67895507812 3180.86547851562 3177.93090820312 3174.75830078125 3171.52294921875 3168.44897460938 3165.134765625 3163.025390625 3163.31640625 3164.81518554688 3167.1259765625 3169.79150390625 3172.02587890625 3173.85009765625 3175.76684570312 3177.60205078125 3179.21948242188 3180.99584960938 3183.11499023438 3185.21752929688 3186.88842773438 3188.515625 3190.17041015625 3191.74487304688 3193.1748046875 3194.8974609375 3197.03833007812 3199.39111328125 3201.66381835938 3204.23754882812 3206.69189453125 3208.587890625 3210.32006835938 3212.416015625 3214.74658203125 3216.87133789062 3219.041015625 3221.75561523438 3224.89208984375 3227.64990234375 3230.51318359375 3233.84033203125 3237.16455078125 3240.05249023438 3243.20141601562 3246.708984375 3250.56787109375 3254.5166015625 3258.72924804688 3262.76391601562 3266.47778320312 3269.900390625 3273.57397460938 3277.43872070312 3280.662109375 3282.96362304688 3285.240234375 3287.92211914062 3290.37939453125 3293.13647460938 3296.41430664062 3299.53881835938 3302.05151367188 3304.33178710938 3306.43334960938 3308.341796875 3310.080078125 3311.96728515625 3313.80004882812 3315.3671875 3316.79077148438 3318.42578125 3320.1162109375 3321.59887695312 3322.98559570312 -3.4e+38 -3.4e+38 -3.4e+38 -3.4e+38 -3.4e+38
-3.4e+38 -3.4e+38 -3.4e+38 -3.4e+38 -3.4e+38 -3.4e+38 -3.4e+38 -3.4e+38 -3.4e+38 -3.4e+38 -3.4e+38 -3.4e+38 -3.4e+38 -3.4e+38 -3.4e+38 -3.4e+38 -3.4e+38 -3.4e+38 -3.4e+38 -3.4e+38 -3.4e+38 -3.4e+38 -3.4e+38 -3.4e+38 -3.4e+38 -3.4e+38 -3.4e+38 -3.4e+38 -3.4e+38 -3.4e+38 -3.4e+38 -3.4e+38 -3.4e+38 -3.4e+38 -3.4e+38 -3.4e+38 -3.4e+38 -3.4e+38 -3.4e+38 -3.4e+38 -3.4e+38 -3.4e+38 -3.4e+38 -3.4e+38 -3.4e+38 -3.4e+38 -3.4e+38 -3.4e+38 -3.4e+38 -3.4e+38 -3.4e+38 -3.4e+38 -3.4e+38 -3.4e+38 -3.4e+38 -3.4e+38 -3.4e+38 -3.4e+38 -3.4e+38 -3.4e+38 -3.4e+38 -3.4e+38 -3.4e+38 -3.4e+38 -3.4e+38 -3.4e+38 -3.4e+38 -3.4e+38 -3.4e+38 -3.4e+38 -3.4e+38 -3.4e+38 -3.4e+38 -3.4e+38 -3.4e+38 -3.4e+38 -3.4e+38 -3.4e+38 -3.4e+38 3231.93237304688 3230.09301757812 3227.69506835938 3225.30395507812 3223.26489257812 3221.267578125 3219.48681640625 3218.04614257812 3216.771484375 3215.392578125 3214.00903320312 3212.81909179688 3211.734375 3210.67236328125 3209.802734375 3209.13549804688 3208.537109375 3207.86401367188 3207.36206054688 3207.05590820312 3206.78540039062 3206.6201171875 3206.47973632812 3206.373046875 3206.271484375 3206.21337890625 3206.21801757812 3206.2705078125 3206.3701171875 3206.54956054688 3206.80639648438 3207.0849609375 3207.50415039062 3208.1298828125 3208.77221679688 3209.3349609375 3209.98217773438 3210.58251953125 3211.041015625 3211.40356445312 3211.65209960938 3211.71337890625 3211.6162109375 3211.63647460938 3211.63427734375 3211.36987304688 3210.92260742188 3210.248046875 3209.39672851562 3208.45141601562 3207.32958984375 3205.76098632812 3204.05590820312 3202.47265625 3200.85498046875 3198.90991210938 3196.76928710938 3194.55053710938 3191.7158203125 3188.35498046875 3184.93920898438 3181.99975585938 3178.90795898438 3175.59643554688 3172.41479492188 3169.37231445312 3166.23022460938 3164.88134765625 3166.01025390625 3167.82641601562 3170.1982421875 3172.4560546875 3174.34545898438 3176.03442382812 3177.8408203125 3179.51586914062 3180.99243164062 3182.6748046875 3184.71362304688 3186.705078125 3188.3671875 3190.01342773438 3191.63110351562 3193.1953125 3194.69873046875 3196.65234375 3199.09448242188 3201.59204101562 3203.98657226562 3206.69458007812 3209.33447265625 3211.4482421875 3213.36572265625 3215.62622070312 3217.97265625 3220.02294921875 3222.16528320312 3224.73608398438 3227.57348632812 3230.07421875 3232.73461914062 3235.95092773438 3239.17431640625 3241.93115234375 3245.240234375 3249.15380859375 3253.2490234375 3257.32104492188 3261.74975585938 3265.95434570312 3269.68139648438 3273.2646484375 3277.1923828125 3280.81005859375 3283.35913085938 3285.37231445312 3287.47290039062 3289.68188476562 3291.81811523438 3294.6611328125 3298.2705078125 3301.56030273438 3304.06616210938 3306.3896484375 3308.53662109375 3310.45825195312 3312.21606445312 3314.16088867188 3316.04541015625 3317.65454101562 3319.12646484375 3320.869140625 3322.71069335938 3324.29272460938 3325.80053710938 3327.39233398438 3328.8701171875 -3.4e+38 -3.4e+38 -3.4e+38
-3.4e+38 -3.4e+38 -3.4e+38 -3.4e+38 -3.4e+38 -3.4e+38 -3.4e+38 -3.4e+38 -3.4e+38 -3.4e+38 -3.4e+38 -3.4e+38 -3.4e+38 -3.4e+38 -3.4e+38 -3.4e+38 -3.4e+38 -3.4e+38 -3.4e+38 -3.4e+38 -3.4e+38 -3.4e+38 -3.4e+38 -3.4e+38 -3.4e+38 -3.4e+38 -3.4e+38 -3.4e+38 -3.4e+38 -3.4e+38 -3.4e+38 -3.4e+38 -3.4e+38 -3.4e+38 -3.4e+38 -3.4e+38 -3.4e+38 -3.4e+38 -3.4e+38 -3.4e+38 -3.4e+38 -3.4e+38 -3.4e+38 -3.4e+38 -3.4e+38 -3.4e+38 -3.4e+38 -3.4e+38 -3.4e+38 -3.4e+38 -3.4e+38 -3.4e+38 -3.4e+38 -3.4e+38 -3.4e+38 -3.4e+38 -3.4e+38 -3.4e+38 -3.4e+38 -3.4e+38 -3.4e+38 -3.4e+38 -3.4e+38 -3.4e+38 -3.4e+38 -3.4e+38 -3.4e+38 -3.4e+38 -3.4e+38 -3.4e+38 -3.4e+38 -3.4e+38 -3.4e+38 -3.4e+38 -3.4e+38 -3.4e+38 -3.4e+38 -3.4e+38 -3.4e+38 3232.8046875 3231.04809570312 3228.68579101562 3226.31518554688 3224.251953125 3222.158203125 3220.28491210938 3218.89794921875 3217.73657226562 3216.47436523438 3215.21459960938 3214.11157226562 3213.12353515625 3212.1083984375 3211.21264648438 3210.50756835938 3209.86010742188 3209.17114257812 3208.65405273438 3208.32788085938 3208.09716796875 3207.982421875 3207.87524414062 3207.77197265625 3207.654296875 3207.56591796875 3207.58837890625 3207.66796875 3207.77661132812 3207.95556640625 3208.21728515625 3208.55053710938 3208.99877929688 3209.53881835938 3210.04248046875 3210.60693359375 3211.30810546875 3211.85717773438 3212.25244140625 3212.56616210938 3212.84521484375 3212.97583007812 3212.92553710938 3212.77221679688 3212.638671875 3212.44970703125 3211.99047851562 3211.3779296875 3210.5576171875 3209.64404296875 3208.65747070312 3207.15942382812 3205.3212890625 3203.68725585938 3202.04223632812 3200.1767578125 3198.18334960938 3196.1806640625 3193.4365234375 3189.78149414062 3186.1865234375 3183.14306640625 3179.91455078125 3176.48217773438 3173.28588867188 3170.2587890625 3167.61767578125 3167.15063476562 3168.654296875 3170.6064453125 3172.75512695312 3174.79370117188 3176.52319335938 3178.13305664062 3179.85864257812 3181.4755859375 3182.89404296875 3184.46484375 3186.390625 3188.318359375 3189.92041015625 3191.49243164062 3193.05786132812 3194.68188476562 3196.3828125 3198.66821289062 3201.29614257812 3203.86450195312 3206.30688476562 3209.03540039062 3211.82958984375 3214.24658203125 3216.4169921875 3218.8095703125 3221.19458007812 3223.279296875 3225.5166015625 3228.03588867188 3230.56201171875 3232.90942382812 3235.57983398438 3238.6201171875 3241.462890625 3243.9951171875 3247.41430664062 3251.44604492188 3255.46362304688 3259.60522460938 3264.49267578125 3269.072265625 3272.8173828125 3276.47509765625 3280.32202148438 3283.33178710938 3285.3876953125 3287.38452148438 3289.45678710938 3291.533203125 3293.69287109375 3296.79516601562 3300.58447265625 3303.85083007812 3306.24389648438 3308.50122070312 3310.6552734375 3312.59375 3314.36791992188 3316.34692382812 3318.26879882812 3319.95629882812 3321.54736328125 3323.46728515625 3325.50927734375 3327.205078125 3328.6689453125 3330.01953125 3331.17138671875 -3.4e+38 -3.4e+38 -3.4e+38
-3.4e+38 -3.4e+38 -3.4e+38 -3.4e+38 -3.4e+38 -3.4e+38 -3.4e+38 -3.4e+38 -3.4e+38 -3.4e+38 -3.4e+38 -3.4e+38 -3.4e+38 -3.4e+38 -3.4e+38 -3.4e+38 -3.4e+38 -3.4e+38 -3.4e+38 -3.4e+38 -3.4e+38 -3.4e+38 -3.4e+38 -3.4e+38 -3.4e+38 -3.4e+38 -3.4e+38 -3.4e+38 -3.4e+38 -3.4e+38 -3.4e+38 -3.4e+38 -3.4e+38 -3.4e+38 -3.4e+38 -3.4e+38 -3.4e+38 -3.4e+38 -3.4e+38 -3.4e+38 -3.4e+38 -3.4e+38 -3.4e+38 -3.4e+38 -3.4e+38 -3.4e+38 -3.4e+38 -3.4e+38 -3.4e+38 -3.4e+38 -3.4e+38 -3.4e+38 -3.4e+38 -3.4e+38 -3.4e+38 -3.4e+38 -3.4e+38 -3.4e+38 -3.4e+38 -3.4e+38 -3.4e+38 -3.4e+38 -3.4e+38 -3.4e+38 -3.4e+38 -3.4e+38 -3.4e+38 -3.4e+38 -3.4e+38 -3.4e+38 -3.4e+38 -3.4e+38 -3.4e+38 -3.4e+38 -3.4e+38 -3.4e+38 -3.4e+38 -3.4e+38 -3.4e+38 3233.36743164062 3231.88134765625 3229.67016601562 3227.36254882812 3225.349609375 3223.22314453125 3221.29052734375 3219.86083984375 3218.74365234375 3217.55029296875 3216.40893554688 3215.4189453125 3214.53881835938 3213.62573242188 3212.68530273438 3211.95556640625 3211.25219726562 3210.61767578125 3210.125 3209.77172851562 3209.53051757812 3209.4130859375 3209.30908203125 3209.20971679688 3209.09887695312 3209.01977539062 3209.0419921875 3209.12109375 3209.2568359375 3209.45556640625 3209.68286132812 3210.005859375 3210.43676757812 3210.91674804688 3211.37622070312 3211.85961914062 3212.40307617188 3212.9560546875 3213.40258789062 3213.70434570312 3213.9765625 3214.08471679688 3214.03588867188 3213.92504882812 3213.59692382812 3213.24267578125 3212.94604492188 3212.33178710938 3211.55859375 3210.70385742188 3209.73657226562 3208.30981445312 3206.54467773438 3204.91259765625 3203.21118164062 3201.31860351562 3199.3974609375 3197.52612304688 3194.87548828125 3191.15356445312 3187.4560546875 3184.28662109375 3180.91137695312 3177.41064453125 3174.12939453125 3171.15405273438 3169.13940429688 3169.52392578125 3171.23071289062 3173.04565429688 3175.05810546875 3177.01806640625 3178.67651367188 3180.23168945312 3181.92456054688 3183.53515625 3184.94458007812 3186.46508789062 3188.24975585938 3190.04174804688 3191.54638671875 3193.02075195312 3194.52661132812 3196.30688476562 3198.3291015625 3200.84204101562 3203.5478515625 3206.10522460938 3208.5732421875 3211.400390625 3214.31176757812 3216.96850585938 3219.42822265625 3221.96606445312 3224.50708007812 3226.74194335938 3228.99291992188 3231.35791015625 3233.740234375 3236.15698242188 3238.96606445312 3241.79467773438 3244.25024414062 3246.66772460938 3249.99682617188 3253.74536132812 3257.58471679688 3261.90502929688 3267.00024414062 3271.77758789062 3275.642578125 3279.32373046875 3282.81079101562 3285.35131835938 3287.33911132812 3289.29345703125 3291.392578125 3293.73022460938 3296.33227539062 3299.65991210938 3303.25170898438 3306.22509765625 3308.46044921875 3310.65966796875 3312.81298828125 3314.73510742188 3316.50805664062 3318.4921875 3320.43188476562 3322.16430664062 3323.8876953125 3325.98974609375 3328.15063476562 3329.8583984375 3331.12060546875 3332.2080078125 3333.18994140625 -3.4e+38 -3.4e+38 -3.4e+38
-3.4e+38 -3.4e+38 -3.4e+38 -3.4e+38 -3.4e+38 -3.4e+38 -3.4e+38 -3.4e+38 -3.4e+38 -3.4e+38 -3.4e+38 -3.4e+38 -3.4e+38 -3.4e+38 -3.4e+38 -3.4e+38 -3.4e+38 -3.4e+38 -3.4e+38 -3.4e+38 -3.4e+38 -3.4e+38 -3.4e+38 -3.4e+38 -3.4e+38 -3.4e+38 -3.4e+38 -3.4e+38 -3.4e+38 -3.4e+38 -3.4e+38 -3.4e+38 -3.4e+38 -3.4e+38 -3.4e+38 -3.4e+38 -3.4e+38 -3.4e+38 -3.4e+38 -3.4e+38 -3.4e+38 -3.4e+38 -3.4e+38 -3.4e+38 -3.4e+38 -3.4e+38 -3.4e+38 -3.4e+38 -3.4e+38 -3.4e+38 -3.4e+38 -3.4e+38 -3.4e+38 -3.4e+38 -3.4e+38 -3.4e+38 -3.4e+38 -3.4e+38 -3.4e+38 -3.4e+38 -3.4e+38 -3.4e+38 -3.4e+38 -3.4e+38 -3.4e+38 -3.4e+38 -3.4e+38 -3.4e+38 -3.4e+38 -3.4e+38 -3.4e+38 -3.4e+38 -3.4e+38 -3.4e+38 -3.4e+38 -3.4e+38 -3.4e+38 -3.4e+38 -3.4e+38 3233.82202148438 3232.58374023438 3230.66577148438 3228.53466796875 3226.5791015625 3224.46337890625 3222.5302734375 3220.98193359375 3219.73510742188 3218.56469726562 3217.51196289062 3216.59741210938 3215.8388671875 3215.06958007812 3214.2294921875 3213.517578125 3212.74536132812 3212.13061523438 3211.63940429688 3211.28955078125 3211.02563476562 3210.88745117188 3210.81787109375 3210.71728515625 3210.63110351562 3210.57495117188 3210.533203125 3210.59716796875 3210.7470703125 3210.93432617188 3211.19262695312 3211.47265625 3211.84594726562 3212.28198242188 3212.68701171875 3213.07958984375 3213.5361328125 3214.05883789062 3214.44165039062 3214.78149414062 3215.12573242188 3215.22094726562 3215.1826171875 3215.17651367188 3214.95092773438 3214.56909179688 3214.16870117188 3213.5107421875 3212.65014648438 3211.80883789062 3210.79931640625 3209.41723632812 3207.70092773438 3206.06591796875 3204.39990234375 3202.4443359375 3200.40966796875 3198.47875976562 3195.92553710938 3192.42431640625 3188.62377929688 3185.29760742188 3181.84057617188 3178.396484375 3175.1640625 3172.35693359375 3170.85375976562 3171.72387695312 3173.52075195312 3175.26928710938 3177.26611328125 3179.21142578125 3180.84252929688 3182.39086914062 3184.07641601562 3185.65405273438 3187.02416992188 3188.54345703125 3190.24975585938 3191.90161132812 3193.30883789062 3194.72021484375 3196.27075195312 3198.2470703125 3200.48266601562 3203.11303710938 3205.841796875 3208.35693359375 3210.83666992188 3213.78564453125 3216.77709960938 3219.49877929688 3222.22534179688 3225.10327148438 3227.908203125 3230.28051757812 3232.4921875 3234.7451171875 3237.14379882812 3239.65283203125 3242.46313476562 3245.12963867188 3247.55395507812 3249.99340820312 3253.04809570312 3256.38720703125 3260.05419921875 3264.34619140625 3269.26000976562 3273.984375 3277.96655273438 3281.50366210938 3284.65258789062 3287.22998046875 3289.24609375 3291.22338867188 3293.609375 3296.42822265625 3299.38842773438 3302.73120117188 3305.95703125 3308.54223632812 3310.6650390625 3312.88745117188 3315.04663085938 3316.93432617188 3318.65747070312 3320.6123046875 3322.55346679688 3324.31323242188 3326.11743164062 3328.25170898438 3330.32153320312 3331.89990234375 3333.1923828125 3334.3095703125 3335.26513671875 3336.06274414062 -3.4e+38 -3.4e+38
-3.4e+38 -3.4e+38 -3.4e+38 -3.4e+38 -3.4e+38 -3.4e+38 -3.4e+38 -3.4e+38 -3.4e+38 -3.4e+38 -3.4e+38 -3.4e+38 -3.4e+38 -3.4e+38 -3.4e+38 -3.4e+38 -3.4e+38 -3.4e+38 -3.4e+38 -3.4e+38 -3.4e+38 -3.4e+38 -3.4e+38 -3.4e+38 -3.4e+38 -3.4e+38 -3.4e+38 -3.4e+38 -3.4e+38 -3.4e+38 -3.4e+38 -3.4e+38 -3.4e+38 -3.4e+38 -3.4e+38 -3.4e+38 -3.4e+38 -3.4e+38 -3.4e+38 -3.4e+38 -3.4e+38 -3.4e+38 -3.4e+38 -3.4e+38 -3.4e+38 -3.4e+38 -3.4e+38 -3.4e+38 -3.4e+38 -3.4e+38 -3.4e+38 -3.4e+38 -3.4e+38 -3.4e+38 -3.4e+38 -3.4e+38 -3.4e+38 -3.4e+38 -3.4e+38 -3.4e+38 -3.4e+38 -3.4e+38 -3.4e+38 -3.4e+38 -3.4e+38 -3.4e+38 -3.4e+38 -3.4e+38 -3.4e+38 -3.4e+38 -3.4e+38 -3.4e+38 -3.4e+38 -3.4e+38 -3.4e+38 -3.4e+38 -3.4e+38 -3.4e+38 -3.4e+38 -3.4e+38 3233.25805664062 3231.72778320312 3229.83227539062 3227.90185546875 3225.81591796875 3223.87084960938 3222.23315429688 3220.81274414062 3219.5615234375 3218.59716796875 3217.7919921875 3217.07763671875 3216.349609375 3215.6708984375 3215.05639648438 3214.30200195312 3213.68237304688 3213.19482421875 3212.84497070312 3212.56201171875 3212.3896484375 3212.32983398438 3212.2392578125 3212.15234375 3212.17333984375 3212.11547851562 3212.10400390625 3212.21240234375 3212.35961914062 3212.62817382812 3212.94409179688 3213.31176757812 3213.71850585938 3214.05200195312 3214.44140625 3214.88403320312 3215.27587890625 3215.53295898438 3215.82104492188 3216.07861328125 3216.23388671875 3216.3037109375 3216.39135742188 3216.34326171875 3216.05102539062 3215.63891601562 3215.03247070312 3214.12451171875 3213.05737304688 3211.9580078125 3210.53930664062 3208.87426757812 3207.234375 3205.48803710938 3203.515625 3201.42041015625 3199.412109375 3196.91552734375 3193.62182617188 3189.83837890625 3186.31787109375 3182.638671875 3179.20458984375 3176.0791015625 3173.68896484375 3172.89721679688 3174.03833007812 3175.75903320312 3177.47216796875 3179.43334960938 3181.37744140625 3183.00122070312 3184.54272460938 3186.1826171875 3187.75830078125 3189.1416015625 3190.65209960938 3192.28002929688 3193.82397460938 3195.20166015625 3196.7763671875 3198.56225585938 3200.59130859375 3202.78466796875 3205.39697265625 3208.13232421875 3210.66455078125 3213.19116210938 3216.16015625 3219.201171875 3221.94409179688 3224.87353515625 3228.123046875 3231.173828125 3233.57348632812 3235.73803710938 3238.02563476562 3240.54663085938 3243.07983398438 3245.78686523438 3248.390625 3250.90478515625 3253.423828125 3256.41625976562 3259.68896484375 3263.12719726562 3266.87939453125 3271.49536132812 3276.16235351562 3279.94213867188 3283.22802734375 3286.27197265625 3289.05737304688 3291.19702148438 3293.4287109375 3296.29565429688 3299.48071289062 3302.49340820312 3305.6142578125 3308.39794921875 3310.76635742188 3312.89111328125 3315.1787109375 3317.306640625 3319.09448242188 3320.7705078125 3322.68090820312 3324.62158203125 3326.40283203125 3328.23461914062 3330.3154296875 3332.25219726562 3333.80883789062 3335.22241210938 3336.46606445312 3337.42163085938 3338.16284179688 -3.4e+38 -3.4e+38
-3.4e+38 -3.4e+38 -3.4e+38 -3.4e+38 -3.4e+38 -3.4e+38 -3.4e+38 -3.4e+38 -3.4e+38 -3.4e+38 -3.4e+38 -3.4e+38 -3.4e+38 -3.4e+38 -3.4e+38 -3.4e+38 -3.4e+38 -3.4e+38 -3.4e+38 -3.4e+38 -3.4e+38 -3.4e+38 -3.4e+38 -3.4e+38 -3.4e+38 -3.4e+38 -3.4e+38 -3.4e+38 -3.4e+38 -3.4e+38 -3.4e+38 -3.4e+38 -3.4e+38 -3.4e+38 -3.4e+38 -3.4e+38 -3.4e+38 -3.4e+38 -3.4e+38 -3.4e+38 -3.4e+38 -3.4e+38 -3.4e+38 -3.4e+38 -3.4e+38 -3.4e+38 -3.4e+38 -3.4e+38 -3.4e+38 -3.4e+38 -3.4e+38 -3.4e+38 -3.4e+38 -3.4e+38 -3.4e+38 -3.4e+38 -3.4e+38 -3.4e+38 -3.4e+38 -3.4e+38 -3.4e+38 -3.4e+38 -3.4e+38 -3.4e+38 -3.4e+38 -3.4e+38 -3.4e+38 -3.4e+38 -3.4e+38 -3.4e+38 -3.4e+38 -3.4e+38 -3.4e+38 -3.4e+38 -3.4e+38 -3.4e+38 -3.4e+38 -3.4e+38 -3.4e+38 -3.4e+38 3233.86889648438 3232.69140625 3231.12939453125 3229.29223632812 3227.20849609375 3225.22534179688 3223.57202148438 3222.08813476562 3220.73901367188 3219.79321289062 3219.08227539062 3218.38256835938 3217.63037109375 3216.99584960938 3216.46728515625 3215.85717773438 3215.21362304688 3214.74853515625 3214.41040039062 3214.11352539062 3213.96459960938 3213.88940429688 3213.8583984375 3213.79614257812 3213.76611328125 3213.74340820312 3213.73901367188 3213.83129882812 3213.9765625 3214.189453125 3214.45947265625 3214.76831054688 3215.05493164062 3215.3388671875 3215.68920898438 3216.09814453125 3216.3984375 3216.63110351562 3216.90600585938 3217.1318359375 3217.2744140625 3217.32153320312 3217.46166992188 3217.54467773438 3217.380859375 3217.10229492188 3216.572265625 3215.74633789062 3214.67407226562 3213.35278320312 3211.77905273438 3210.09057617188 3208.42919921875 3206.57275390625 3204.58984375 3202.49047851562 3200.3662109375 3197.91552734375 3194.77392578125 3190.99975585938 3187.349609375 3183.5244140625 3180.0517578125 3176.9609375 3175.03369140625 3175.03344726562 3176.36474609375 3177.95947265625 3179.64624023438 3181.59301757812 3183.50415039062 3185.07177734375 3186.6005859375 3188.2509765625 3189.8359375 3191.24267578125 3192.75146484375 3194.32055664062 3195.86108398438 3197.38623046875 3199.20629882812 3201.17431640625 3203.1240234375 3205.14965820312 3207.69360351562 3210.4873046875 3213.04052734375 3215.58569335938 3218.56030273438 3221.62475585938 3224.46142578125 3227.57934570312 3231.00927734375 3234.0390625 3236.376953125 3238.6513671875 3241.09838867188 3243.70727539062 3246.1826171875 3248.82958984375 3251.51904296875 3254.1416015625 3256.7431640625 3259.93286132812 3263.39477539062 3266.54272460938 3269.66625976562 3273.8193359375 3278.29663085938 3281.77856445312 3284.87158203125 3287.98852539062 3290.947265625 3293.39086914062 3296.06762695312 3299.25317382812 3302.53271484375 3305.42333984375 3308.14697265625 3310.67626953125 3312.97680664062 3315.13037109375 3317.4228515625 3319.45849609375 3321.1591796875 3322.78466796875 3324.68017578125 3326.64111328125 3328.4140625 3330.23974609375 3332.26831054688 3334.18017578125 3335.7470703125 3337.22607421875 3338.5107421875 3339.49951171875 3340.28637695312 -3.4e+38 -3.4e+38
