NCOLS 162
NROWS 39
XLLCORNER 419591.519902
YLLCORNER 4416537.22541
CELLSIZE 10 
NODATA_value -3.4e+38 
-3.4e+38 -3.4e+38 -3.4e+38 -3.4e+38 -3.4e+38 -3.4e+38 -3.4e+38 -3.4e+38 3466.33618164062 3465.47778320312 3463.33764648438 3460.55224609375 3457.19506835938 3453.67358398438 3450.75561523438 3448.37036132812 3446.1484375 3444.16430664062 3442.45190429688 3440.81494140625 3439.03295898438 3437.28247070312 3435.62866210938 3433.966796875 3432.037109375 3430.14135742188 3428.59594726562 3426.697265625 3423.935546875 3421.1533203125 3418.755859375 3416.26904296875 3413.37109375 3410.28125 3407.548828125 3404.95751953125 3403.17749023438 3402.75659179688 3402.78442382812 3402.8369140625 3402.92578125 3403.01000976562 3403.09716796875 3403.17822265625 3403.248046875 3403.31982421875 3403.23486328125 3402.87255859375 3402.4609375 3402.09521484375 3401.70263671875 3401.2861328125 3400.9013671875 3400.5244140625 3400.08715820312 3399.61547851562 3399.18115234375 3398.6845703125 3398.08569335938 3397.50073242188 3396.94799804688 3396.322265625 3395.40893554688 3394.29736328125 3393.34619140625 3392.44873046875 3391.55517578125 3390.67919921875 3389.57104492188 3388.2373046875 3386.62817382812 3384.73706054688 3382.66284179688 3380.03930664062 3376.94311523438 3373.95678710938 3371.14990234375 3368.27978515625 3365.85522460938 3364.09155273438 3362.53393554688 3361.09301757812 3359.88012695312 3359.3671875 3359.99584960938 3361.25366210938 3361.77661132812 3361.19165039062 3359.08129882812 3355.20385742188 -3.4e+38 -3.4e+38 -3.4e+38 -3.4e+38 -3.4e+38 -3.4e+38 -3.4e+38 -3.4e+38 -3.4e+38 -3.4e+38 -3.4e+38 -3.4e+38 -3.4e+38 -3.4e+38 -3.4e+38 -3.4e+38 -3.4e+38 -3.4e+38 -3.4e+38 -3.4e+38 -3.4e+38 -3.4e+38 -3.4e+38 -3.4e+38 -3.4e+38 -3.4e+38 -3.4e+38 -3.4e+38 -3.4e+38 -3.4e+38 -3.4e+38 -3.4e+38 -3.4e+38 -3.4e+38 -3.4e+38 -3.4e+38 -3.4e+38 -3.4e+38 -3.4e+38 -3.4e+38 -3.4e+38 -3.4e+38 -3.4e+38 -3.4e+38 -3.4e+38 -3.4e+38 -3.4e+38 -3.4e+38 -3.4e+38 -3.4e+38 -3.4e+38 -3.4e+38 -3.4e+38 -3.4e+38 -3.4e+38 -3.4e+38 -3.4e+38 -3.4e+38 -3.4e+38 -3.4e+38 -3.4e+38 -3.4e+38 -3.4e+38 -3.4e+38 -3.4e+38 -3.4e+38 -3.4e+38 -3.4e+38 -3.4e+38 -3.4e+38 -3.4e+38 -3.4e+38
-3.4e+38 -3.4e+38 -3.4e+38 -3.4e+38 -3.4e+38 -3.4e+38 -3.4e+38 -3.4e+38 3462.90966796875 3461.29516601562 3458.50024414062 3455.30493164062 3452.078125 3449.01171875 3446.4482421875 3444.38427734375 3442.32739257812 3440.34057617188 3438.59545898438 3436.94458007812 3435.18237304688 3433.44995117188 3431.86840820312 3430.29541015625 3428.48852539062 3426.57275390625 3424.8505859375 3422.87744140625 3420.45556640625 3418.04833984375 3415.7353515625 3413.33203125 3410.619140625 3407.76782226562 3405.10375976562 3402.25439453125 3399.90307617188 3398.865234375 3398.494140625 3398.44262695312 3398.46875 3398.49267578125 3398.53686523438 3398.6279296875 3398.69848632812 3398.74194335938 3398.6796875 3398.40161132812 3398.09936523438 3397.79809570312 3397.42065429688 3396.95532226562 3396.51879882812 3396.09545898438 3395.61547851562 3395.11108398438 3394.66918945312 3394.21142578125 3393.685546875 3393.16186523438 3392.66259765625 3392.19458007812 3391.60693359375 3390.86206054688 3390.22314453125 3389.59228515625 3388.9619140625 3388.23852539062 3387.30444335938 3386.0732421875 3384.48461914062 3382.76440429688 3380.95166015625 3378.46508789062 3375.380859375 3372.31372070312 3369.36596679688 3366.27905273438 3363.53271484375 3361.48217773438 3359.78076171875 3358.4560546875 3357.4287109375 3356.88427734375 3356.63305664062 3356.26586914062 3355.81884765625 3355.15185546875 3353.70581054688 3351.04956054688 3347.49389648438 3343.9375 -3.4e+38 -3.4e+38 -3.4e+38 -3.4e+38 -3.4e+38 -3.4e+38 -3.4e+38 -3.4e+38 -3.4e+38 -3.4e+38 -3.4e+38 -3.4e+38 -3.4e+38 -3.4e+38 -3.4e+38 -3.4e+38 -3.4e+38 -3.4e+38 -3.4e+38 -3.4e+38 -3.4e+38 -3.4e+38 -3.4e+38 -3.4e+38 -3.4e+38 -3.4e+38 -3.4e+38 -3.4e+38 -3.4e+38 -3.4e+38 -3.4e+38 -3.4e+38 -3.4e+38 -3.4e+38 -3.4e+38 -3.4e+38 -3.4e+38 -3.4e+38 -3.4e+38 -3.4e+38 -3.4e+38 -3.4e+38 -3.4e+38 -3.4e+38 -3.4e+38 -3.4e+38 -3.4e+38 -3.4e+38 -3.4e+38 -3.4e+38 -3.4e+38 -3.4e+38 -3.4e+38 -3.4e+38 -3.4e+38 -3.4e+38 -3.4e+38 -3.4e+38 -3.4e+38 -3.4e+38 -3.4e+38 -3.4e+38 -3.4e+38 -3.4e+38 -3.4e+38 -3.4e+38 -3.4e+38 -3.4e+38 -3.4e+38 -3.4e+38
-3.4e+38 -3.4e+38 -3.4e+38 -3.4e+38 -3.4e+38 -3.4e+38 3461.046875 3459.9970703125 3458.328125 3455.97973632812 3453.001953125 3450.13500976562 3447.21899414062 3444.42944335938 3442.12255859375 3440.1689453125 3438.1416015625 3436.14624023438 3434.42065429688 3432.80297851562 3431.07202148438 3429.46215820312 3428.0205078125 3426.36938476562 3424.34448242188 3422.32177734375 3420.49340820312 3418.61547851562 3416.67041015625 3414.81176757812 3412.76220703125 3410.40209960938 3407.86938476562 3405.31567382812 3402.65112304688 3399.46435546875 3396.41723632812 3394.51245117188 3393.87939453125 3393.82250976562 3393.81372070312 3393.78149414062 3393.75024414062 3393.77807617188 3393.79736328125 3393.79541015625 3393.76708984375 3393.67114257812 3393.53100585938 3393.34448242188 3393.00927734375 3392.546875 3392.08349609375 3391.6494140625 3391.20532226562 3390.76904296875 3390.4130859375 3390.07763671875 3389.69091796875 3389.32153320312 3389.03759765625 3388.77807617188 3388.44946289062 3388.03784179688 3387.6474609375 3387.203125 3386.65869140625 3385.9482421875 3385.07275390625 3383.94482421875 3382.55151367188 3381.00244140625 3379.2724609375 3376.87573242188 3373.90502929688 3371.00122070312 3368.06616210938 3364.720703125 3361.15356445312 3358.265625 3356.49975585938 3355.46557617188 3354.615234375 3353.95043945312 3353.2431640625 3352.2802734375 3351.23071289062 3350.13256835938 3348.61206054688 3346.59912109375 3343.96752929688 3340.88989257812 3337.22094726562 -3.4e+38 -3.4e+38 -3.4e+38 -3.4e+38 -3.4e+38 -3.4e+38 -3.4e+38 -3.4e+38 -3.4e+38 -3.4e+38 -3.4e+38 -3.4e+38 -3.4e+38 -3.4e+38 -3.4e+38 -3.4e+38 -3.4e+38 -3.4e+38 -3.4e+38 -3.4e+38 -3.4e+38 -3.4e+38 -3.4e+38 -3.4e+38 -3.4e+38 -3.4e+38 -3.4e+38 -3.4e+38 -3.4e+38 -3.4e+38 -3.4e+38 -3.4e+38 -3.4e+38 -3.4e+38 -3.4e+38 -3.4e+38 -3.4e+38 -3.4e+38 -3.4e+38 -3.4e+38 -3.4e+38 -3.4e+38 -3.4e+38 -3.4e+38 -3.4e+38 -3.4e+38 -3.4e+38 -3.4e+38 -3.4e+38 -3.4e+38 -3.4e+38 -3.4e+38 -3.4e+38 -3.4e+38 -3.4e+38 -3.4e+38 -3.4e+38 -3.4e+38 -3.4e+38 -3.4e+38 -3.4e+38 -3.4e+38 -3.4e+38 -3.4e+38 -3.4e+38 -3.4e+38 -3.4e+38 -3.4e+38 -3.4e+38
-3.4e+38 -3.4e+38 -3.4e+38 -3.4e+38 -3.4e+38 -3.4e+38 3457.6015625 3455.8330078125 3453.90161132812 3451.14916992188 3448.05346679688 3445.09130859375 3442.16796875 3439.62036132812 3437.47192382812 3435.57104492188 3433.5576171875 3431.6416015625 3430.01538085938 3428.46020507812 3426.70629882812 3425.02368164062 3423.50317382812 3421.78955078125 3419.71557617188 3417.72509765625 3416.09130859375 3414.60375976562 3413.03979492188 3411.43994140625 3409.72119140625 3407.5947265625 3405.20239257812 3402.56591796875 3399.55029296875 3396.06201171875 3392.76293945312 3390.49731445312 3389.5517578125 3389.33642578125 3389.259765625 3389.18603515625 3389.12475585938 3389.10986328125 3389.1044921875 3389.08471679688 3389.056640625 3389.0419921875 3389.00854492188 3388.91333007812 3388.65844726562 3388.2998046875 3387.90673828125 3387.57055664062 3387.2685546875 3386.96899414062 3386.7802734375 3386.61791992188 3386.42114257812 3386.26782226562 3386.17358398438 3386.048828125 3385.84741210938 3385.61108398438 3385.3349609375 3384.96801757812 3384.44946289062 3383.78393554688 3382.97802734375 3381.96362304688 3380.78515625 3379.31811523438 3377.54565429688 3375.275390625 3372.56372070312 3369.84887695312 3366.96264648438 3363.25268554688 3358.939453125 3355.373046875 3353.32055664062 3352.1591796875 3351.01928710938 3349.99389648438 3348.94482421875 3347.84790039062 3346.67602539062 3345.39208984375 3343.67626953125 3341.87426757812 3340.0927734375 3337.78149414062 3334.693359375 3331.28393554688 -3.4e+38 -3.4e+38 -3.4e+38 -3.4e+38 -3.4e+38 -3.4e+38 -3.4e+38 -3.4e+38 -3.4e+38 -3.4e+38 -3.4e+38 -3.4e+38 -3.4e+38 -3.4e+38 -3.4e+38 -3.4e+38 -3.4e+38 -3.4e+38 -3.4e+38 -3.4e+38 -3.4e+38 -3.4e+38 -3.4e+38 -3.4e+38 -3.4e+38 -3.4e+38 -3.4e+38 -3.4e+38 -3.4e+38 -3.4e+38 -3.4e+38 -3.4e+38 -3.4e+38 -3.4e+38 -3.4e+38 -3.4e+38 -3.4e+38 -3.4e+38 -3.4e+38 -3.4e+38 -3.4e+38 -3.4e+38 -3.4e+38 -3.4e+38 -3.4e+38 -3.4e+38 -3.4e+38 -3.4e+38 -3.4e+38 -3.4e+38 -3.4e+38 -3.4e+38 -3.4e+38 -3.4e+38 -3.4e+38 -3.4e+38 -3.4e+38 -3.4e+38 -3.4e+38 -3.4e+38 -3.4e+38 -3.4e+38 -3.4e+38 -3.4e+38 -3.4e+38 -3.4e+38 -3.4e+38 -3.4e+38
-3.4e+38 -3.4e+38 -3.4e+38 -3.4e+38 -3.4e+38 3456.72143554688 3454.65234375 3452.41528320312 3449.68212890625 3446.44653320312 3443.17651367188 3440.19702148438 3437.20068359375 3434.564453125 3432.48364257812 3430.7001953125 3428.78857421875 3426.86572265625 3425.201171875 3423.61889648438 3421.81176757812 3420.04418945312 3418.55688476562 3417.01025390625 3415.216796875 3413.580078125 3412.28759765625 3411.0341796875 3409.61206054688 3408.12573242188 3406.66967773438 3404.75317382812 3402.0693359375 3399.01171875 3395.88256835938 3392.51684570312 3389.3564453125 3387.01318359375 3385.55493164062 3384.9365234375 3384.78881835938 3384.71875 3384.69506835938 3384.68798828125 3384.68579101562 3384.67163085938 3384.64624023438 3384.6435546875 3384.63037109375 3384.5673828125 3384.42993164062 3384.23608398438 3384.01147460938 3383.8232421875 3383.66918945312 3383.50537109375 3383.4423828125 3383.43603515625 3383.42651367188 3383.43237304688 3383.44750976562 3383.4140625 3383.34155273438 3383.2568359375 3383.12377929688 3382.86059570312 3382.40698242188 3381.81860351562 3381.12524414062 3380.15991210938 3378.91748046875 3377.4921875 3375.8203125 3373.677734375 3371.1767578125 3368.67626953125 3365.82446289062 3361.89428710938 3357.63793945312 3354.09326171875 3351.236328125 3348.73779296875 3346.3935546875 3344.90087890625 3343.93481445312 3343.015625 3341.91625976562 3340.52856445312 3338.86328125 3337.1806640625 3335.75366210938 3334.240234375 3331.59887695312 3328.24169921875 3324.66577148438 3320.87158203125 3316.94311523438 3313.3134765625 -3.4e+38 -3.4e+38 -3.4e+38 -3.4e+38 -3.4e+38 -3.4e+38 -3.4e+38 -3.4e+38 -3.4e+38 -3.4e+38 -3.4e+38 -3.4e+38 -3.4e+38 -3.4e+38 -3.4e+38 -3.4e+38 -3.4e+38 -3.4e+38 -3.4e+38 -3.4e+38 -3.4e+38 -3.4e+38 -3.4e+38 -3.4e+38 -3.4e+38 -3.4e+38 -3.4e+38 -3.4e+38 -3.4e+38 -3.4e+38 -3.4e+38 -3.4e+38 -3.4e+38 -3.4e+38 -3.4e+38 -3.4e+38 -3.4e+38 -3.4e+38 -3.4e+38 -3.4e+38 -3.4e+38 -3.4e+38 -3.4e+38 -3.4e+38 -3.4e+38 -3.4e+38 -3.4e+38 -3.4e+38 -3.4e+38 -3.4e+38 -3.4e+38 -3.4e+38 -3.4e+38 -3.4e+38 -3.4e+38 -3.4e+38 -3.4e+38 -3.4e+38 -3.4e+38 -3.4e+38 -3.4e+38 -3.4e+38 -3.4e+38 -3.4e+38
-3.4e+38 -3.4e+38 -3.4e+38 -3.4e+38 -3.4e+38 3454.21850585938 3451.58569335938 3448.45751953125 3444.99389648438 3441.44677734375 3438.19262695312 3435.2314453125 3432.10546875 3429.2724609375 3427.22705078125 3425.46557617188 3423.49975585938 3421.5400390625 3419.90795898438 3418.29907226562 3416.578125 3415.07055664062 3413.80883789062 3412.52587890625 3411.07250976562 3409.77709960938 3408.70141601562 3407.62573242188 3406.44116210938 3405.06494140625 3403.48193359375 3401.11450195312 3397.91040039062 3394.7587890625 3392.00073242188 3389.05346679688 3386.03833007812 3383.42602539062 3381.34399414062 3380.38452148438 3380.23901367188 3380.18115234375 3380.18603515625 3380.19384765625 3380.20458984375 3380.21728515625 3380.2294921875 3380.23876953125 3380.23095703125 3380.20556640625 3380.1826171875 3380.14208984375 3380.0849609375 3380.05395507812 3380.01977539062 3380.02001953125 3380.12719726562 3380.28051757812 3380.46142578125 3380.63061523438 3380.7666015625 3380.83032226562 3380.8935546875 3380.970703125 3380.97802734375 3380.81689453125 3380.43115234375 3379.8984375 3379.21875 3378.216796875 3376.86596679688 3375.466796875 3373.93676757812 3371.9736328125 3369.75708007812 3367.50537109375 3364.70532226562 3360.91137695312 3357.05126953125 3353.6328125 3349.9775390625 3345.94458007812 3342.4453125 3340.44946289062 3339.16918945312 3337.91381835938 3336.60302734375 3335.3193359375 3333.86181640625 3332.49389648438 3331.32788085938 3329.998046875 3327.47875976562 3323.85131835938 3320.58374023438 3317.71704101562 3314.54296875 3311.11938476562 3308.5390625 3305.83178710938 -3.4e+38 -3.4e+38 -3.4e+38 -3.4e+38 -3.4e+38 -3.4e+38 -3.4e+38 -3.4e+38 -3.4e+38 -3.4e+38 -3.4e+38 -3.4e+38 -3.4e+38 -3.4e+38 -3.4e+38 -3.4e+38 -3.4e+38 -3.4e+38 -3.4e+38 -3.4e+38 -3.4e+38 -3.4e+38 -3.4e+38 -3.4e+38 -3.4e+38 -3.4e+38 -3.4e+38 -3.4e+38 -3.4e+38 -3.4e+38 -3.4e+38 -3.4e+38 -3.4e+38 -3.4e+38 -3.4e+38 -3.4e+38 -3.4e+38 -3.4e+38 -3.4e+38 -3.4e+38 -3.4e+38 -3.4e+38 -3.4e+38 -3.4e+38 -3.4e+38 -3.4e+38 -3.4e+38 -3.4e+38 -3.4e+38 -3.4e+38 -3.4e+38 -3.4e+38 -3.4e+38 -3.4e+38 -3.4e+38 -3.4e+38 -3.4e+38 -3.4e+38 -3.4e+38 -3.4e+38 -3.4e+38 -3.4e+38
-3.4e+38 -3.4e+38 -3.4e+38 -3.4e+38 -3.4e+38 3450.67846679688 3447.06225585938 3443.37524414062 3439.84838867188 3436.4033203125 3433.2158203125 3430.29223632812 3427.14965820312 3424.25219726562 3422.0302734375 3419.9365234375 3417.76708984375 3415.98876953125 3414.54858398438 3413.16162109375 3411.69409179688 3410.40991210938 3409.33666992188 3408.22338867188 3407.04077148438 3405.98754882812 3405.06030273438 3404.14990234375 3403.02172851562 3401.35961914062 3399.15747070312 3396.23364257812 3393.02734375 3390.408203125 3388.16821289062 3385.55322265625 3382.60473632812 3379.78271484375 3377.08959960938 3375.353515625 3374.8740234375 3374.84619140625 3374.93090820312 3375.03735351562 3375.15087890625 3375.232421875 3375.31127929688 3375.3896484375 3375.47045898438 3375.55102539062 3375.63793945312 3375.7197265625 3375.82202148438 3375.96655273438 3376.13208007812 3376.35522460938 3376.66064453125 3376.96313476562 3377.28857421875 3377.619140625 3377.84912109375 3378.04565429688 3378.28857421875 3378.50463867188 3378.5869140625 3378.447265625 3378.09326171875 3377.568359375 3376.87622070312 3375.88793945312 3374.62768554688 3373.28735351562 3371.93505859375 3370.25903320312 3368.30786132812 3366.26733398438 3363.49975585938 3359.9169921875 3356.54150390625 3353.14111328125 3349.01977539062 3344.55126953125 3340.6064453125 3337.318359375 3334.31860351562 3332.24682617188 3330.9296875 3329.69409179688 3328.30493164062 3326.89038085938 3325.4091796875 3323.61059570312 3321.1357421875 3318.55322265625 3316.40942382812 3314.18725585938 3311.44091796875 3308.47631835938 3305.85473632812 3302.7021484375 3298.75268554688 3294.54223632812 -3.4e+38 -3.4e+38 -3.4e+38 -3.4e+38 -3.4e+38 -3.4e+38 -3.4e+38 -3.4e+38 -3.4e+38 -3.4e+38 -3.4e+38 -3.4e+38 -3.4e+38 -3.4e+38 -3.4e+38 -3.4e+38 -3.4e+38 -3.4e+38 -3.4e+38 -3.4e+38 -3.4e+38 -3.4e+38 -3.4e+38 -3.4e+38 -3.4e+38 -3.4e+38 -3.4e+38 -3.4e+38 -3.4e+38 -3.4e+38 -3.4e+38 -3.4e+38 -3.4e+38 -3.4e+38 -3.4e+38 -3.4e+38 -3.4e+38 -3.4e+38 -3.4e+38 -3.4e+38 -3.4e+38 -3.4e+38 -3.4e+38 -3.4e+38 -3.4e+38 -3.4e+38 -3.4e+38 -3.4e+38 -3.4e+38 -3.4e+38 -3.4e+38 -3.4e+38 -3.4e+38 -3.4e+38 -3.4e+38 -3.4e+38 -3.4e+38 -3.4e+38 -3.4e+38 -3.4e+38
-3.4e+38 -3.4e+38 -3.4e+38 -3.4e+38 -3.4e+38 3445.81909179688 3441.7998046875 3438.19140625 3434.7724609375 3431.28100585938 3428.17944335938 3425.3583984375 3422.24951171875 3419.3564453125 3417.005859375 3414.82788085938 3412.65673828125 3410.86499023438 3409.5166015625 3408.3076171875 3407.05249023438 3405.89282226562 3404.92602539062 3403.91284179688 3402.83129882812 3401.79614257812 3400.82836914062 3399.73559570312 3398.25756835938 3396.29638671875 3393.90942382812 3391.16186523438 3388.6328125 3386.60791015625 3384.69213867188 3382.22436523438 3379.15112304688 3376.02416992188 3372.736328125 3369.79809570312 3368.6376953125 3368.73486328125 3368.9736328125 3369.22021484375 3369.48168945312 3369.69653320312 3369.89990234375 3370.1064453125 3370.31005859375 3370.49365234375 3370.70336914062 3370.88256835938 3371.08837890625 3371.41284179688 3371.89331054688 3372.39916992188 3372.865234375 3373.31420898438 3373.77978515625 3374.23461914062 3374.583984375 3374.87060546875 3375.17529296875 3375.39990234375 3375.490234375 3375.396484375 3375.08374023438 3374.6416015625 3374.06762695312 3373.1982421875 3372.1650390625 3371.14306640625 3370.13110351562 3368.64794921875 3366.65087890625 3364.6064453125 3362.04931640625 3358.74438476562 3355.482421875 3352.068359375 3348.09521484375 3343.80151367188 3339.3955078125 3334.92431640625 3330.48217773438 3327.11352539062 3324.92333984375 3323.322265625 3321.92651367188 3320.54296875 3319.02587890625 3317.39282226562 3315.56323242188 3313.666015625 3312.01245117188 3310.26293945312 3308.07202148438 3305.43115234375 3302.22705078125 3298.58349609375 3294.74047851562 3291.06518554688 3287.18115234375 -3.4e+38 -3.4e+38 -3.4e+38 -3.4e+38 -3.4e+38 -3.4e+38 -3.4e+38 -3.4e+38 -3.4e+38 -3.4e+38 -3.4e+38 -3.4e+38 -3.4e+38 -3.4e+38 -3.4e+38 -3.4e+38 -3.4e+38 -3.4e+38 -3.4e+38 -3.4e+38 -3.4e+38 -3.4e+38 -3.4e+38 -3.4e+38 -3.4e+38 -3.4e+38 -3.4e+38 -3.4e+38 -3.4e+38 -3.4e+38 -3.4e+38 -3.4e+38 -3.4e+38 -3.4e+38 -3.4e+38 -3.4e+38 -3.4e+38 -3.4e+38 -3.4e+38 -3.4e+38 -3.4e+38 -3.4e+38 -3.4e+38 -3.4e+38 -3.4e+38 -3.4e+38 -3.4e+38 -3.4e+38 -3.4e+38 -3.4e+38 -3.4e+38 -3.4e+38 -3.4e+38 -3.4e+38 -3.4e+38 -3.4e+38 -3.4e+38 -3.4e+38 -3.4e+38
-3.4e+38 -3.4e+38 -3.4e+38 -3.4e+38 3444.69555664062 3441.09008789062 3437.20434570312 3433.57202148438 3429.8740234375 3426.4208984375 3423.48828125 3420.57299804688 3417.36694335938 3414.6552734375 3412.45703125 3410.23583984375 3407.90869140625 3406.02270507812 3404.60302734375 3403.41479492188 3402.21801757812 3401.10278320312 3400.16528320312 3399.17895507812 3398.0927734375 3397.00366210938 3395.8955078125 3394.43505859375 3392.69897460938 3390.92651367188 3389.01293945312 3386.85913085938 3384.9833984375 3383.380859375 3381.615234375 3378.96875 3375.39916992188 3371.8212890625 3368.26733398438 3365.05981445312 3363.52978515625 3363.4951171875 3363.6953125 3363.95825195312 3364.26831054688 3364.541015625 3364.81103515625 3365.11059570312 3365.38598632812 3365.6279296875 3365.90551757812 3366.15991210938 3366.45190429688 3366.89965820312 3367.587890625 3368.2861328125 3368.91381835938 3369.50390625 3370.10375976562 3370.68383789062 3371.14819335938 3371.443359375 3371.6494140625 3371.77416992188 3371.8486328125 3371.79174804688 3371.62060546875 3371.40502929688 3370.998046875 3370.31787109375 3369.56323242188 3368.9892578125 3368.34057617188 3366.95434570312 3364.80590820312 3362.6884765625 3360.349609375 3357.4599609375 3354.19287109375 3350.68286132812 3346.84790039062 3342.6669921875 3337.93872070312 3333.0439453125 3327.97875976562 3322.82592773438 3319.0458984375 3317.26220703125 3316.07666015625 3314.84301757812 3313.68310546875 3312.41870117188 3310.88427734375 3309.15966796875 3307.56787109375 3305.85009765625 3303.64404296875 3300.86962890625 3297.55590820312 3293.92651367188 3290.42114257812 3287.06372070312 3283.61303710938 3280.03442382812 3276.48950195312 -3.4e+38 -3.4e+38 -3.4e+38 -3.4e+38 -3.4e+38 -3.4e+38 -3.4e+38 -3.4e+38 -3.4e+38 -3.4e+38 -3.4e+38 -3.4e+38 -3.4e+38 -3.4e+38 -3.4e+38 -3.4e+38 -3.4e+38 -3.4e+38 -3.4e+38 -3.4e+38 -3.4e+38 -3.4e+38 -3.4e+38 -3.4e+38 -3.4e+38 -3.4e+38 -3.4e+38 -3.4e+38 -3.4e+38 -3.4e+38 -3.4e+38 -3.4e+38 -3.4e+38 -3.4e+38 -3.4e+38 -3.4e+38 -3.4e+38 -3.4e+38 -3.4e+38 -3.4e+38 -3.4e+38 -3.4e+38 -3.4e+38 -3.4e+38 -3.4e+38 -3.4e+38 -3.4e+38 -3.4e+38 -3.4e+38 -3.4e+38 -3.4e+38 -3.4e+38 -3.4e+38 -3.4e+38 -3.4e+38 -3.4e+38 -3.4e+38
-3.4e+38 -3.4e+38 -3.4e+38 -3.4e+38 3440.70141601562 3437.06884765625 3433.01293945312 3429.28759765625 3425.7900390625 3422.3642578125 3419.25634765625 3416.33129882812 3413.29663085938 3410.60693359375 3408.39379882812 3406.04125976562 3403.376953125 3401.25317382812 3399.666015625 3398.31689453125 3397.083984375 3395.98510742188 3395.02685546875 3393.990234375 3392.92041015625 3391.87939453125 3390.69287109375 3389.0791015625 3387.3876953125 3385.8818359375 3384.43237304688 3382.89501953125 3381.501953125 3380.21850585938 3378.431640625 3375.36791992188 3371.35717773438 3367.685546875 3364.35229492188 3361.51342773438 3359.77416992188 3359.34301757812 3359.44775390625 3359.71240234375 3360.00268554688 3360.24267578125 3360.5224609375 3360.8447265625 3361.12963867188 3361.37670898438 3361.64038085938 3361.95849609375 3362.3154296875 3362.77294921875 3363.47729492188 3364.24755859375 3364.94946289062 3365.62866210938 3366.35473632812 3367.08178710938 3367.65112304688 3367.9365234375 3368.013671875 3368.080078125 3368.15112304688 3368.13500976562 3368.1015625 3368.07446289062 3367.88940429688 3367.47412109375 3366.95483398438 3366.50952148438 3366.01953125 3364.87231445312 3362.83447265625 3360.67504882812 3358.46020507812 3356.03491210938 3352.97241210938 3349.21533203125 3345.29907226562 3340.90356445312 3335.95727539062 3331.0615234375 3325.46948242188 3319.72607421875 3315.55737304688 3312.70288085938 3310.48510742188 3309.41967773438 3308.81079101562 3308.07958984375 3306.57836914062 3304.57397460938 3302.76123046875 3300.73852539062 3298.25 3295.541015625 3292.68383789062 3289.26977539062 3285.84301757812 3282.8349609375 3280.15258789062 3277.23217773438 3274.248046875 3271.46215820312 3268.314453125 3264.29541015625 -3.4e+38 -3.4e+38 -3.4e+38 -3.4e+38 -3.4e+38 -3.4e+38 -3.4e+38 -3.4e+38 -3.4e+38 -3.4e+38 -3.4e+38 -3.4e+38 -3.4e+38 -3.4e+38 -3.4e+38 -3.4e+38 -3.4e+38 -3.4e+38 -3.4e+38 -3.4e+38 -3.4e+38 -3.4e+38 -3.4e+38 -3.4e+38 -3.4e+38 -3.4e+38 -3.4e+38 -3.4e+38 -3.4e+38 -3.4e+38 -3.4e+38 -3.4e+38 -3.4e+38 -3.4e+38 -3.4e+38 -3.4e+38 -3.4e+38 -3.4e+38 -3.4e+38 -3.4e+38 -3.4e+38 -3.4e+38 -3.4e+38 -3.4e+38 -3.4e+38 -3.4e+38 -3.4e+38 -3.4e+38 -3.4e+38 -3.4e+38 -3.4e+38 -3.4e+38 -3.4e+38 -3.4e+38
-3.4e+38 -3.4e+38 -3.4e+38 -3.4e+38 3437.23315429688 3433.38745117188 3429.36791992188 3425.94287109375 3422.56469726562 3418.98559570312 3415.77392578125 3412.97241210938 3410.01123046875 3407.17309570312 3404.81396484375 3402.25756835938 3399.2197265625 3396.572265625 3394.59423828125 3393.05908203125 3391.8798828125 3390.85107421875 3389.87426757812 3388.74291992188 3387.53271484375 3386.38818359375 3385.18774414062 3383.72436523438 3382.27221679688 3381.017578125 3379.90966796875 3378.87548828125 3377.82397460938 3376.63330078125 3374.7451171875 3371.54052734375 3367.64892578125 3364.19165039062 3361.04443359375 3358.0693359375 3355.87817382812 3355.19091796875 3355.36791992188 3355.685546875 3355.96411132812 3356.23217773438 3356.5498046875 3356.88403320312 3357.19213867188 3357.470703125 3357.7685546875 3358.14086914062 3358.49829101562 3358.90063476562 3359.5458984375 3360.2666015625 3360.94970703125 3361.65795898438 3362.47216796875 3363.2392578125 3363.8291015625 3364.19287109375 3364.31103515625 3364.39379882812 3364.48364257812 3364.56103515625 3364.64111328125 3364.72631835938 3364.71215820312 3364.48095703125 3364.13696289062 3363.74243164062 3363.28955078125 3362.27075195312 3360.57104492188 3358.71411132812 3356.63940429688 3354.06176757812 3350.79956054688 3347.330078125 3343.458984375 3338.77685546875 3333.88671875 3328.982421875 3323.04516601562 3317.306640625 3312.76147460938 3308.78564453125 3305.69311523438 3304.2578125 3303.57763671875 3302.77026367188 3301.26025390625 3299.43725585938 3297.61352539062 3295.39526367188 3292.83813476562 3290.22875976562 3287.54248046875 3284.36596679688 3281.32177734375 3278.94873046875 3276.859375 3274.38745117188 3271.64331054688 3268.99829101562 3265.72021484375 3261.49438476562 3257.80346679688 -3.4e+38 -3.4e+38 -3.4e+38 -3.4e+38 -3.4e+38 -3.4e+38 -3.4e+38 -3.4e+38 -3.4e+38 -3.4e+38 -3.4e+38 -3.4e+38 -3.4e+38 -3.4e+38 -3.4e+38 -3.4e+38 -3.4e+38 -3.4e+38 -3.4e+38 -3.4e+38 -3.4e+38 -3.4e+38 -3.4e+38 -3.4e+38 -3.4e+38 -3.4e+38 -3.4e+38 -3.4e+38 -3.4e+38 -3.4e+38 -3.4e+38 -3.4e+38 -3.4e+38 -3.4e+38 -3.4e+38 -3.4e+38 -3.4e+38 -3.4e+38 -3.4e+38 -3.4e+38 -3.4e+38 -3.4e+38 -3.4e+38 -3.4e+38 -3.4e+38 -3.4e+38 -3.4e+38 -3.4e+38 -3.4e+38 -3.4e+38 -3.4e+38 -3.4e+38 -3.4e+38
-3.4e+38 -3.4e+38 -3.4e+38 3437.28149414062 3433.95971679688 3430.0185546875 3426.45849609375 3423.365234375 3419.95288085938 3416.44165039062 3413.31030273438 3410.4306640625 3407.20874023438 3404.05200195312 3401.39794921875 3398.60302734375 3395.30737304688 3392.31372070312 3390.0634765625 3388.43481445312 3387.15502929688 3385.978515625 3384.89038085938 3383.5859375 3382.10083007812 3380.81762695312 3379.78686523438 3378.73291015625 3377.7041015625 3376.833984375 3376.0224609375 3375.16015625 3374.08666992188 3372.78979492188 3370.96704101562 3367.96020507812 3364.283203125 3360.96020507812 3357.88500976562 3354.86303710938 3352.4521484375 3351.3623046875 3351.23559570312 3351.4375 3351.70947265625 3352.03637695312 3352.38012695312 3352.7626953125 3353.09399414062 3353.4130859375 3353.8046875 3354.21997070312 3354.56811523438 3354.94311523438 3355.56127929688 3356.2412109375 3356.86376953125 3357.56372070312 3358.35766601562 3359.06591796875 3359.62866210938 3360.12915039062 3360.4326171875 3360.60571289062 3360.74365234375 3360.88330078125 3361.03955078125 3361.14819335938 3361.19555664062 3361.1474609375 3360.94140625 3360.64697265625 3360.30078125 3359.45336914062 3358.25439453125 3356.72412109375 3354.57446289062 3351.52294921875 3348.11450195312 3344.92431640625 3341.193359375 3336.3564453125 3331.44750976562 3326.537109375 3320.67407226562 3315.04174804688 3310.30249023438 3306.11938476562 3302.22924804688 3299.25341796875 3297.62280273438 3296.53515625 3295.21948242188 3293.81274414062 3292.24145507812 3290.05786132812 3287.546875 3285.11254882812 3282.64453125 3279.9453125 3277.41064453125 3275.36889648438 3273.62353515625 3271.439453125 3268.5830078125 3265.56591796875 3262.2158203125 3258.447265625 3255.55200195312 3253.75170898438 3252.10595703125 3250.20678710938 -3.4e+38 -3.4e+38 -3.4e+38 -3.4e+38 -3.4e+38 -3.4e+38 -3.4e+38 -3.4e+38 -3.4e+38 -3.4e+38 -3.4e+38 -3.4e+38 -3.4e+38 -3.4e+38 -3.4e+38 -3.4e+38 -3.4e+38 -3.4e+38 -3.4e+38 -3.4e+38 -3.4e+38 -3.4e+38 -3.4e+38 -3.4e+38 -3.4e+38 -3.4e+38 -3.4e+38 -3.4e+38 -3.4e+38 -3.4e+38 -3.4e+38 -3.4e+38 -3.4e+38 -3.4e+38 -3.4e+38 -3.4e+38 -3.4e+38 -3.4e+38 -3.4e+38 -3.4e+38 -3.4e+38 -3.4e+38 -3.4e+38 -3.4e+38 -3.4e+38 -3.4e+38 -3.4e+38 -3.4e+38 -3.4e+38 -3.4e+38
-3.4e+38 -3.4e+38 -3.4e+38 3434.525390625 3430.84790039062 3427.20068359375 3424.20849609375 3421.25927734375 3417.78979492188 3414.37231445312 3411.39013671875 3408.38818359375 3404.95483398438 3401.51586914062 3398.37280273438 3395.09765625 3391.68139648438 3388.826171875 3386.54150390625 3384.587890625 3382.8984375 3381.48852539062 3380.23950195312 3378.89624023438 3377.49047851562 3376.37377929688 3375.58471679688 3374.841796875 3374.11010742188 3373.4609375 3372.7783203125 3371.9013671875 3370.71435546875 3369.263671875 3367.40698242188 3364.416015625 3360.75390625 3357.59350585938 3354.66455078125 3351.78564453125 3349.29956054688 3347.5595703125 3346.74780273438 3346.82666015625 3347.10668945312 3347.44262695312 3347.79809570312 3348.20361328125 3348.54443359375 3348.89477539062 3349.38452148438 3349.94165039062 3350.39721679688 3350.89306640625 3351.52807617188 3352.2080078125 3352.82055664062 3353.47900390625 3354.19360351562 3354.85473632812 3355.466796875 3356.04931640625 3356.455078125 3356.66088867188 3356.84008789062 3357.02783203125 3357.22534179688 3357.38745117188 3357.51708984375 3357.59399414062 3357.62475585938 3357.56567382812 3357.42626953125 3356.98413085938 3356.12084960938 3354.68115234375 3352.11303710938 3348.60766601562 3345.07275390625 3341.89575195312 3338.044921875 3333.32202148438 3328.59692382812 3323.8056640625 3318.29614257812 3312.87329101562 3308.25903320312 3304.05859375 3299.58032226562 3295.25732421875 3292.37475585938 3290.591796875 3289.01635742188 3287.74291992188 3286.36743164062 3284.40405273438 3282.17626953125 3280.15869140625 3278.15405273438 3275.88916015625 3273.68676757812 3271.8515625 3270.12451171875 3267.72924804688 3264.51196289062 3261.36694335938 3258.52661132812 3255.83813476562 3253.63549804688 3252.00830078125 3250.486328125 3248.79858398438 3247.09716796875 3245.45849609375 3243.4462890625 3241.00146484375 -3.4e+38 -3.4e+38 -3.4e+38 -3.4e+38 -3.4e+38 -3.4e+38 -3.4e+38 -3.4e+38 -3.4e+38 -3.4e+38 -3.4e+38 -3.4e+38 -3.4e+38 -3.4e+38 -3.4e+38 -3.4e+38 -3.4e+38 -3.4e+38 -3.4e+38 -3.4e+38 -3.4e+38 -3.4e+38 -3.4e+38 -3.4e+38 -3.4e+38 -3.4e+38 -3.4e+38 -3.4e+38 -3.4e+38 -3.4e+38 -3.4e+38 -3.4e+38 -3.4e+38 -3.4e+38 -3.4e+38 -3.4e+38 -3.4e+38 -3.4e+38 -3.4e+38 -3.4e+38 -3.4e+38 -3.4e+38 -3.4e+38 -3.4e+38 -3.4e+38 -3.4e+38
-3.4e+38 -3.4e+38 -3.4e+38 3432.0126953125 3428.55883789062 3425.28344726562 3422.484375 3419.60546875 3416.18627929688 3412.73022460938 3409.67016601562 3406.525390625 3403.0087890625 3399.45947265625 3396.05493164062 3392.421875 3388.78759765625 3385.8349609375 3383.50317382812 3381.2236328125 3379.09301757812 3377.57202148438 3376.31591796875 3375.07788085938 3373.95288085938 3373.0849609375 3372.38696289062 3371.68481445312 3371.0048828125 3370.3798828125 3369.71752929688 3368.84155273438 3367.5478515625 3365.76123046875 3363.38793945312 3360.1591796875 3356.82958984375 3354.14379882812 3351.51733398438 3348.7705078125 3346.14916992188 3343.82446289062 3342.39697265625 3342.35595703125 3342.60913085938 3342.8564453125 3343.15209960938 3343.49194335938 3343.791015625 3344.1181640625 3344.6923828125 3345.45434570312 3346.08715820312 3346.77270507812 3347.4912109375 3348.173828125 3348.787109375 3349.439453125 3350.10205078125 3350.7275390625 3351.32299804688 3351.91284179688 3352.38793945312 3352.69580078125 3352.95092773438 3353.22802734375 3353.53759765625 3353.79809570312 3353.9892578125 3354.20483398438 3354.38647460938 3354.54248046875 3354.69116210938 3354.52221679688 3353.49560546875 3351.712890625 3348.97241210938 3345.40771484375 3341.83911132812 3338.45825195312 3334.669921875 3330.3017578125 3325.69653320312 3321.16723632812 3316.00219726562 3310.68334960938 3306.22875976562 3302.04028320312 3297.41430664062 3292.63208007812 3288.10522460938 3284.48217773438 3282.50170898438 3281.43872070312 3280.37084960938 3278.751953125 3276.86181640625 3275.27368164062 3273.791015625 3271.84521484375 3269.70727539062 3267.65161132812 3265.54956054688 3262.70190429688 3259.490234375 3257.12963867188 3255.33349609375 3253.4921875 3251.71411132812 3250.17138671875 3248.75805664062 3247.2353515625 3245.60522460938 3243.890625 3241.71313476562 3239.17919921875 3236.67724609375 3234.37719726562 3231.94653320312 3229.04858398438 3225.58178710938 3222.01416015625 3218.36791992188 3214.90502929688 3211.90014648438 3209.24609375 3206.99096679688 3205.77514648438 3205.21850585938 3204.32177734375 3203.43725585938 -3.4e+38 -3.4e+38 -3.4e+38 -3.4e+38 -3.4e+38 -3.4e+38 -3.4e+38 -3.4e+38 -3.4e+38 -3.4e+38 -3.4e+38 -3.4e+38 -3.4e+38 -3.4e+38 -3.4e+38 -3.4e+38 -3.4e+38 -3.4e+38 -3.4e+38 -3.4e+38 -3.4e+38 -3.4e+38 -3.4e+38 -3.4e+38 -3.4e+38 -3.4e+38 -3.4e+38 -3.4e+38 -3.4e+38 -3.4e+38 -3.4e+38
-3.4e+38 -3.4e+38 -3.4e+38 3430.076171875 3427.1787109375 3424.18286132812 3421.38427734375 3418.4765625 3415.11840820312 3411.55712890625 3408.32202148438 3405.0380859375 3401.37622070312 3397.7177734375 3394.23461914062 3390.54736328125 3386.6552734375 3383.17333984375 3380.59985351562 3378.26806640625 3375.99975585938 3374.30078125 3373.01318359375 3371.7666015625 3370.75463867188 3369.97998046875 3369.29272460938 3368.5869140625 3367.91088867188 3367.251953125 3366.50366210938 3365.46166992188 3363.8349609375 3361.5185546875 3358.6513671875 3355.54956054688 3352.9208984375 3350.79418945312 3348.50439453125 3345.90869140625 3343.29370117188 3340.79272460938 3338.99194335938 3338.548828125 3338.63330078125 3338.779296875 3339.03344726562 3339.31762695312 3339.60595703125 3339.93115234375 3340.52392578125 3341.28344726562 3341.9638671875 3342.671875 3343.45092773438 3344.17749023438 3344.75903320312 3345.35498046875 3345.94750976562 3346.5546875 3347.09936523438 3347.671875 3348.21704101562 3348.62670898438 3349.0185546875 3349.43969726562 3349.9541015625 3350.43823242188 3350.86865234375 3351.27685546875 3351.5693359375 3351.76416015625 3351.82250976562 3351.34790039062 3350.09912109375 3348.21826171875 3345.56005859375 3342.05786132812 3338.29296875 3334.74267578125 3330.96997070312 3326.826171875 3322.42919921875 3318.13598632812 3313.45947265625 3308.53100585938 3304.20361328125 3300.02124023438 3295.31298828125 3289.9833984375 3284.59545898438 3279.68212890625 3275.76318359375 3273.97192382812 3273.61254882812 3272.71997070312 3271.4345703125 3270.37426757812 3269.11840820312 3267.14819335938 3264.88403320312 3262.68432617188 3260.30883789062 3257.66357421875 3255.4931640625 3253.97534179688 3252.68408203125 3251.22314453125 3249.71606445312 3248.30053710938 3246.92749023438 3245.41650390625 3243.70361328125 3241.80908203125 3239.56958007812 3237.041015625 3234.56103515625 3232.22094726562 3229.49584960938 3226.36279296875 3223.00659179688 3219.51831054688 3215.77661132812 3212.21533203125 3209.31372070312 3206.87866210938 3204.83374023438 3203.57275390625 3203.00659179688 3202.37841796875 3202.10131835938 3202.37719726562 3202.98754882812 3203.84057617188 -3.4e+38 -3.4e+38 -3.4e+38 -3.4e+38 -3.4e+38 -3.4e+38 -3.4e+38 -3.4e+38 -3.4e+38 -3.4e+38 -3.4e+38 -3.4e+38 -3.4e+38 -3.4e+38 -3.4e+38 -3.4e+38 -3.4e+38 -3.4e+38 -3.4e+38 -3.4e+38 -3.4e+38 -3.4e+38 -3.4e+38 -3.4e+38 -3.4e+38 -3.4e+38 -3.4e+38 -3.4e+38
-3.4e+38 -3.4e+38 3430.94360351562 3428.9482421875 3426.38134765625 3423.45336914062 3420.61865234375 3417.69458007812 3414.28295898438 3410.69311523438 3407.47998046875 3404.17553710938 3400.333984375 3396.43798828125 3392.90161132812 3389.15258789062 3384.9697265625 3381.01586914062 3378.06762695312 3375.62133789062 3373.271484375 3371.30639648438 3369.79516601562 3368.4853515625 3367.55834960938 3366.81665039062 3366.11279296875 3365.322265625 3364.498046875 3363.66674804688 3362.69091796875 3361.25830078125 3359.22729492188 3356.81176757812 3354.21508789062 3351.72827148438 3349.67016601562 3347.84008789062 3345.74047851562 3343.20947265625 3340.50048828125 3337.86938476562 3335.7353515625 3334.9248046875 3334.98608398438 3335.15185546875 3335.390625 3335.6689453125 3336.01293945312 3336.40747070312 3337.00366210938 3337.6796875 3338.29907226562 3338.98046875 3339.74560546875 3340.42749023438 3340.93090820312 3341.4482421875 3341.98559570312 3342.484375 3342.92700195312 3343.41845703125 3343.93627929688 3344.44995117188 3344.921875 3345.43359375 3346.06811523438 3346.79516601562 3347.56176757812 3348.39770507812 3348.94799804688 3348.97216796875 3348.52807617188 3347.6015625 3346.24047851562 3344.66259765625 3342.18286132812 3338.283203125 3334.30322265625 3330.77905273438 3327.16088867188 3323.1982421875 3319.134765625 3315.12890625 3310.87109375 3306.38720703125 3301.96850585938 3297.57153320312 3292.576171875 3286.80590820312 3281.11889648438 3275.0400390625 3269.35498046875 3266.23413085938 3265.14331054688 3264.67309570312 3263.86108398438 3263.15283203125 3262.3916015625 3261.14916992188 3259.40258789062 3257.63134765625 3255.90234375 3254.07690429688 3252.65942382812 3251.48046875 3250.32397460938 3249.0849609375 3247.72290039062 3246.37182617188 3244.88916015625 3243.17041015625 3241.31420898438 3239.349609375 3237.13623046875 3234.70092773438 3232.20239257812 3229.6533203125 3226.68432617188 3223.54296875 3220.32006835938 3216.78271484375 3212.84301757812 3209.30004882812 3206.5703125 3204.18579101562 3201.89428710938 3200.27172851562 3199.6865234375 3199.73876953125 3200.43725585938 3201.3935546875 3202.42651367188 3203.52172851562 3204.61376953125 3205.935546875 3207.33349609375 -3.4e+38 -3.4e+38 -3.4e+38 -3.4e+38 -3.4e+38 -3.4e+38 -3.4e+38 -3.4e+38 -3.4e+38 -3.4e+38 -3.4e+38 -3.4e+38 -3.4e+38 -3.4e+38 -3.4e+38 -3.4e+38 -3.4e+38 -3.4e+38 -3.4e+38 -3.4e+38 -3.4e+38 -3.4e+38 -3.4e+38 -3.4e+38 -3.4e+38
-3.4e+38 -3.4e+38 3430.14672851562 3428.42358398438 3425.93823242188 3422.9375 3420.06616210938 3417.15405273438 3413.70971679688 3410.11254882812 3406.8916015625 3403.56762695312 3399.66088867188 3395.68286132812 3392.130859375 3388.14624023438 3383.57202148438 3379.41430664062 3376.17114257812 3373.25708007812 3370.5322265625 3368.34814453125 3366.63403320312 3365.23974609375 3364.2587890625 3363.49047851562 3362.72607421875 3361.7841796875 3360.72778320312 3359.6630859375 3358.44604492188 3356.814453125 3354.82373046875 3352.77294921875 3350.73901367188 3348.7578125 3346.93212890625 3345.26147460938 3343.20483398438 3340.43237304688 3337.43676757812 3334.5205078125 3331.99975585938 3331.16235351562 3331.36376953125 3331.57080078125 3331.80126953125 3332.10961914062 3332.49780273438 3333.03540039062 3333.71362304688 3334.36645507812 3334.93896484375 3335.58959960938 3336.306640625 3336.9267578125 3337.43212890625 3337.96533203125 3338.53857421875 3339.01904296875 3339.47192382812 3339.94409179688 3340.41381835938 3340.91821289062 3341.36279296875 3341.82470703125 3342.42138671875 3343.2177734375 3344.41650390625 3345.83569335938 3346.51123046875 3346.3671875 3345.67407226562 3344.5166015625 3342.96875 3340.9921875 3338.02978515625 3333.99389648438 3330.19848632812 3326.98999023438 3323.52880859375 3319.8369140625 3316.052734375 3312.080078125 3307.8642578125 3303.52709960938 3299.22705078125 3294.63818359375 3289.13720703125 3283.18334960938 3277.52465820312 3271.18896484375 3264.66650390625 3259.6611328125 3256.95385742188 3256.15185546875 3255.77709960938 3255.63305664062 3255.52734375 3255.24243164062 3254.45947265625 3253.4052734375 3252.3759765625 3251.201171875 3250.064453125 3249.11279296875 3248.16186523438 3246.98901367188 3245.63208007812 3244.18310546875 3242.49951171875 3240.607421875 3238.68017578125 3236.72485351562 3234.52294921875 3232.09765625 3229.48706054688 3226.75854492188 3223.64477539062 3220.42749023438 3217.24072265625 3213.69970703125 3209.7705078125 3206.38256835938 3203.73876953125 3201.11303710938 3198.43212890625 3196.75366210938 3196.62963867188 3197.4873046875 3198.85131835938 3200.22094726562 3201.58642578125 3202.93139648438 3204.22265625 3205.607421875 3207.04150390625 3208.59497070312 3210.01342773438 -3.4e+38 -3.4e+38 -3.4e+38 -3.4e+38 -3.4e+38 -3.4e+38 -3.4e+38 -3.4e+38 -3.4e+38 -3.4e+38 -3.4e+38 -3.4e+38 -3.4e+38 -3.4e+38 -3.4e+38 -3.4e+38 -3.4e+38 -3.4e+38 -3.4e+38 -3.4e+38 -3.4e+38 -3.4e+38 -3.4e+38
-3.4e+38 -3.4e+38 3429.76000976562 3428.08374023438 3425.64965820312 3422.66235351562 3419.83349609375 3416.9833984375 3413.52587890625 3409.734375 3406.35375976562 3402.94677734375 3399.11694335938 3395.287109375 3391.69897460938 3387.34545898438 3382.33984375 3378.09692382812 3374.67846679688 3371.15893554688 3367.99975585938 3365.63037109375 3363.703125 3362.06420898438 3360.89965820312 3360.109375 3359.32983398438 3358.24169921875 3356.95483398438 3355.701171875 3354.34716796875 3352.75244140625 3351.09448242188 3349.45678710938 3347.73461914062 3345.93774414062 3344.244140625 3342.57543945312 3340.28955078125 3337.26171875 3334.1435546875 3331.27001953125 3328.8515625 3327.9208984375 3328.04272460938 3328.21435546875 3328.42724609375 3328.76708984375 3329.17114257812 3329.724609375 3330.388671875 3331.0341796875 3331.63305664062 3332.27197265625 3332.97387695312 3333.58251953125 3334.13720703125 3334.73583984375 3335.32153320312 3335.83203125 3336.34399414062 3336.89013671875 3337.45458984375 3337.92211914062 3338.3916015625 3338.99780273438 3339.7001953125 3340.63159179688 3342.09741210938 3343.67163085938 3344.31469726562 3344.10302734375 3343.29956054688 3341.57568359375 3339.37841796875 3336.89575195312 3333.54443359375 3329.7421875 3326.46508789062 3323.55712890625 3320.16650390625 3316.35791015625 3312.58081054688 3308.68701171875 3304.41845703125 3300.11645507812 3295.99755859375 3291.32080078125 3285.57446289062 3279.63452148438 3274.15234375 3267.97241210938 3261.28344726562 3255.7255859375 3251.771484375 3249.64135742188 3249.431640625 3249.69897460938 3249.9609375 3250.09375 3249.94311523438 3249.57348632812 3249.08374023438 3248.36059570312 3247.56567382812 3246.8095703125 3245.93041992188 3244.712890625 3243.21533203125 3241.60668945312 3239.81884765625 3237.90551757812 3235.98022460938 3234.01586914062 3231.71704101562 3229.119140625 3226.408203125 3223.62060546875 3220.36694335938 3216.90649414062 3213.64282226562 3210.27001953125 3206.63208007812 3203.40893554688 3200.7802734375 3198.17407226562 3195.73413085938 3194.49096679688 3194.7197265625 3195.94116210938 3197.55249023438 3199.03125 3200.52685546875 3202.04614257812 3203.4736328125 3204.89868164062 3206.41577148438 3207.98095703125 3209.44848632812 3210.85473632812 3212.35595703125 3214.52807617188 3216.96752929688 -3.4e+38 -3.4e+38 -3.4e+38 -3.4e+38 -3.4e+38 -3.4e+38 -3.4e+38 -3.4e+38 -3.4e+38 -3.4e+38 -3.4e+38 -3.4e+38 -3.4e+38 -3.4e+38 -3.4e+38 -3.4e+38 -3.4e+38 -3.4e+38 -3.4e+38
-3.4e+38 -3.4e+38 -3.4e+38 3427.8271484375 3425.42260742188 3422.47705078125 3419.76586914062 3417.06030273438 3413.54077148438 3409.47583007812 3405.873046875 3402.36059570312 3398.70385742188 3395.08740234375 3391.51635742188 3386.85620117188 3381.41040039062 3376.91577148438 3373.28930664062 3369.37426757812 3365.83056640625 3363.1787109375 3360.85766601562 3358.79052734375 3357.46606445312 3356.70434570312 3355.92504882812 3354.67749023438 3353.19360351562 3351.83471679688 3350.439453125 3348.92529296875 3347.46240234375 3346.15795898438 3344.72192382812 3342.994140625 3341.20141601562 3339.31494140625 3336.79223632812 3333.7802734375 3330.86499023438 3328.29028320312 3326.20336914062 3325.1337890625 3324.93579101562 3324.99047851562 3325.21606445312 3325.5693359375 3326.0068359375 3326.56323242188 3327.19604492188 3327.8525390625 3328.4755859375 3329.09057617188 3329.73852539062 3330.33911132812 3330.89721679688 3331.54125976562 3332.25415039062 3332.87377929688 3333.39697265625 3333.96020507812 3334.548828125 3335.06787109375 3335.67456054688 3336.43627929688 3337.3525390625 3338.43725585938 3339.96533203125 3341.45727539062 3341.81323242188 3341.32641601562 3340.11059570312 3337.78881835938 3335.08447265625 3332.51025390625 3329.38745117188 3325.8740234375 3322.90942382812 3320.21215820312 3316.75463867188 3312.63208007812 3308.8818359375 3305.10546875 3300.78295898438 3296.45703125 3292.40966796875 3287.75708007812 3282.05615234375 3276.22241210938 3270.89404296875 3264.87133789062 3258.3330078125 3252.73681640625 3248.0029296875 3244.71264648438 3244.02661132812 3244.3408203125 3244.80395507812 3245.287109375 3245.65185546875 3245.80590820312 3245.72875976562 3245.34155273438 3244.84790039062 3244.17236328125 3243.18798828125 3241.90893554688 3240.34448242188 3238.69921875 3236.93139648438 3235.07177734375 3233.1865234375 3231.18359375 3228.69360351562 3225.89697265625 3223.12353515625 3220.25732421875 3216.81958007812 3213.11987304688 3209.8955078125 3206.787109375 3203.42016601562 3200.314453125 3197.74975585938 3195.35864257812 3193.44799804688 3192.73583984375 3193.1357421875 3194.4169921875 3196.23095703125 3197.83715820312 3199.25512695312 3200.79077148438 3202.33911132812 3203.89379882812 3205.4345703125 3207.03125 3208.63793945312 3210.13232421875 3211.67822265625 3213.87182617188 3216.43701171875 3218.5693359375 -3.4e+38 -3.4e+38 -3.4e+38 -3.4e+38 -3.4e+38 -3.4e+38 -3.4e+38 -3.4e+38 -3.4e+38 -3.4e+38 -3.4e+38 -3.4e+38 -3.4e+38 -3.4e+38 -3.4e+38 -3.4e+38 -3.4e+38 -3.4e+38
-3.4e+38 -3.4e+38 -3.4e+38 3427.6416015625 3425.23950195312 3422.35864257812 3419.74169921875 3417.12646484375 3413.576171875 3409.33081054688 3405.4951171875 3401.86840820312 3398.41845703125 3395.0322265625 3391.54760742188 3386.771484375 3381.11303710938 3376.3134765625 3372.2744140625 3368.04272460938 3364.07421875 3360.84619140625 3357.97631835938 3355.46923828125 3353.88427734375 3353.03955078125 3352.166015625 3350.806640625 3349.25122070312 3347.88354492188 3346.52368164062 3345.14233398438 3343.85180664062 3342.74951171875 3341.46557617188 3339.72924804688 3337.85791015625 3335.8916015625 3333.40673828125 3330.4853515625 3327.74340820312 3325.20825195312 3322.96655273438 3321.82958984375 3321.6279296875 3321.73071289062 3322.02954101562 3322.38134765625 3322.82250976562 3323.42358398438 3324.1318359375 3324.83129882812 3325.447265625 3326.0791015625 3326.759765625 3327.35498046875 3327.94262695312 3328.62133789062 3329.28173828125 3329.90795898438 3330.47241210938 3331.07080078125 3331.74975585938 3332.29858398438 3332.904296875 3333.89672851562 3335.19677734375 3336.27514648438 3337.40869140625 3338.27661132812 3338.0634765625 3337.14770507812 3335.4560546875 3333.064453125 3330.50317382812 3328.06665039062 3325.15478515625 3321.9375 3319.10864257812 3316.39697265625 3312.88745117188 3308.884765625 3305.20483398438 3301.40454101562 3297.06762695312 3292.6845703125 3288.58544921875 3284.03051757812 3278.42895507812 3272.55908203125 3267.29443359375 3261.52856445312 3255.4189453125 3249.98950195312 3245.18383789062 3240.8916015625 3238.48364257812 3238.21533203125 3238.94213867188 3239.91186523438 3240.80004882812 3241.38525390625 3241.62231445312 3241.57836914062 3241.39135742188 3240.84350585938 3239.916015625 3238.6884765625 3237.19311523438 3235.60107421875 3233.86743164062 3232.0302734375 3230.1318359375 3228.0625 3225.49536132812 3222.6328125 3219.73608398438 3216.65356445312 3212.98266601562 3209.27954101562 3206.26611328125 3203.39990234375 3200.20703125 3197.203125 3194.76171875 3192.63623046875 3190.84936523438 3190.09448242188 3190.75073242188 3192.45166015625 3194.646484375 3196.47338867188 3197.95458984375 3199.53076171875 3201.1982421875 3202.80346679688 3204.26635742188 3205.8408203125 3207.47631835938 3208.97216796875 3210.58740234375 3212.60327148438 3214.88354492188 3216.90795898438 3218.86889648438 3220.65991210938 3221.97387695312 -3.4e+38 -3.4e+38 -3.4e+38 -3.4e+38 -3.4e+38 -3.4e+38 -3.4e+38 -3.4e+38 -3.4e+38 -3.4e+38 -3.4e+38 -3.4e+38 -3.4e+38 -3.4e+38 -3.4e+38
-3.4e+38 -3.4e+38 -3.4e+38 3427.4765625 3425.07055664062 3422.31225585938 3419.76904296875 3417.177734375 3413.6474609375 3409.3212890625 3405.3876953125 3401.7060546875 3398.33081054688 3395.0517578125 3391.62158203125 3386.8291015625 3381.22778320312 3376.25830078125 3371.66870117188 3367.06030273438 3362.70166015625 3358.787109375 3355.34301757812 3352.51318359375 3350.396484375 3348.98852539062 3347.83422851562 3346.453125 3345.01489257812 3343.755859375 3342.51391601562 3341.29150390625 3340.16137695312 3339.12646484375 3337.85888671875 3336.22094726562 3334.48046875 3332.744140625 3330.41723632812 3327.498046875 3324.79077148438 3322.03540039062 3319.35327148438 3318.20825195312 3318.2822265625 3318.50903320312 3318.79467773438 3319.11328125 3319.65063476562 3320.39965820312 3321.19921875 3321.90576171875 3322.54638671875 3323.24462890625 3323.94262695312 3324.55883789062 3325.16748046875 3325.83715820312 3326.52416992188 3327.1318359375 3327.73950195312 3328.3671875 3329.01196289062 3329.552734375 3330.19360351562 3331.43774414062 3333.0263671875 3334.12353515625 3334.70263671875 3334.6044921875 3333.96313476562 3332.91772460938 3331.06884765625 3328.70581054688 3326.27416992188 3323.79418945312 3320.90161132812 3317.82250976562 3315.10034179688 3312.296875 3308.76342773438 3305.00732421875 3301.46533203125 3297.6376953125 3293.216796875 3288.69091796875 3284.45825195312 3279.78051757812 3274.2197265625 3268.70288085938 3263.77392578125 3258.37280273438 3252.79125976562 3247.763671875 3242.96801757812 3237.7177734375 3233.56274414062 3232.20190429688 3232.79418945312 3233.98291015625 3235.13427734375 3236.02905273438 3236.67407226562 3237.140625 3237.33618164062 3237.091796875 3236.50659179688 3235.505859375 3234.05200195312 3232.47290039062 3230.73168945312 3228.79370117188 3226.79711914062 3224.7119140625 3222.14575195312 3219.18701171875 3216.09008789062 3212.79614257812 3209.10668945312 3205.6591796875 3202.84594726562 3200.0361328125 3196.97241210938 3194.14404296875 3191.80200195312 3189.61157226562 3187.52270507812 3186.61059570312 3187.70239257812 3190.01123046875 3192.63403320312 3194.86303710938 3196.6474609375 3198.30053710938 3199.97534179688 3201.53369140625 3202.9462890625 3204.52783203125 3206.17529296875 3207.6572265625 3209.1455078125 3210.84448242188 3212.76123046875 3214.5498046875 3216.36474609375 3218.34692382812 3219.92651367188 3220.9296875 3221.73193359375 -3.4e+38 -3.4e+38 -3.4e+38 -3.4e+38 -3.4e+38 -3.4e+38 -3.4e+38 -3.4e+38 -3.4e+38 -3.4e+38 -3.4e+38 -3.4e+38 -3.4e+38
-3.4e+38 -3.4e+38 -3.4e+38 3427.30615234375 3424.89965820312 3422.25952148438 3419.79443359375 3417.24194335938 3413.76879882812 3409.45874023438 3405.578125 3401.87841796875 3398.39892578125 3395.11596679688 3391.69799804688 3386.93481445312 3381.3486328125 3376.2919921875 3371.38452148438 3366.34423828125 3361.59887695312 3357.34497070312 3353.55859375 3350.08666992188 3347.03881835938 3344.87939453125 3343.38818359375 3341.89501953125 3340.51538085938 3339.43701171875 3338.38916015625 3337.34545898438 3336.392578125 3335.42358398438 3334.19775390625 3332.72631835938 3331.09838867188 3329.4521484375 3327.24731445312 3324.5009765625 3321.90063476562 3319.16577148438 3316.55297851562 3315.37573242188 3315.3720703125 3315.57690429688 3315.85864257812 3316.22827148438 3316.72631835938 3317.4404296875 3318.23559570312 3319.02270507812 3319.72387695312 3320.44067382812 3321.17016601562 3321.83715820312 3322.48120117188 3323.16479492188 3323.84765625 3324.49438476562 3325.14428710938 3325.82641601562 3326.47119140625 3327.09985351562 3327.9423828125 3329.40844726562 3331.09765625 3332.1611328125 3332.4365234375 3331.97827148438 3330.91333007812 3329.3828125 3327.23681640625 3324.71899414062 3322.2021484375 3319.64282226562 3316.7822265625 3313.84594726562 3311.18896484375 3308.318359375 3304.70581054688 3300.96801757812 3297.59716796875 3293.7998046875 3289.17456054688 3284.48901367188 3280.01147460938 3274.95849609375 3269.62475585938 3264.93627929688 3260.58447265625 3255.53344726562 3250.33935546875 3245.60424804688 3240.5556640625 3234.7509765625 3229.63305664062 3227.1259765625 3227.23266601562 3228.4873046875 3229.77880859375 3230.82202148438 3231.77612304688 3232.69799804688 3233.28369140625 3233.3388671875 3233.0185546875 3232.2490234375 3230.86572265625 3229.31616210938 3227.55419921875 3225.55078125 3223.48608398438 3221.25463867188 3218.49096679688 3215.34301757812 3212.18115234375 3208.93969726562 3205.45849609375 3202.25268554688 3199.49633789062 3196.74853515625 3193.85498046875 3191.15625 3188.77978515625 3186.39965820312 3184.30004882812 3183.59521484375 3184.845703125 3187.42797851562 3190.27856445312 3192.81298828125 3195.04174804688 3197.01611328125 3198.66381835938 3200.0673828125 3201.40747070312 3202.9912109375 3204.642578125 3205.99487304688 3207.244140625 3208.7099609375 3210.36596679688 3211.90234375 3213.45532226562 3215.18676757812 3216.62622070312 3217.7158203125 3218.72802734375 3219.83129882812 3220.03466796875 3218.87353515625 3217.228515625 -3.4e+38 -3.4e+38 -3.4e+38 -3.4e+38 -3.4e+38 -3.4e+38 -3.4e+38 -3.4e+38 -3.4e+38
-3.4e+38 -3.4e+38 -3.4e+38 3427.11572265625 3424.72583007812 3422.20581054688 3419.81420898438 3417.28295898438 3413.87646484375 3409.64965820312 3405.8134765625 3402.0732421875 3398.52294921875 3395.21435546875 3391.77905273438 3387.05615234375 3381.49462890625 3376.43408203125 3371.52197265625 3366.27368164062 3361.12817382812 3356.66479492188 3352.61206054688 3348.25830078125 3344.18701171875 3341.19360351562 3338.82690429688 3336.78002929688 3335.5244140625 3334.75146484375 3334.03173828125 3333.33081054688 3332.68408203125 3331.806640625 3330.58251953125 3329.125 3327.51123046875 3325.80395507812 3323.75268554688 3321.50390625 3319.17797851562 3316.52880859375 3313.99389648438 3312.66259765625 3312.48461914062 3312.66015625 3313.001953125 3313.5048828125 3314.06567382812 3314.75927734375 3315.5107421875 3316.26953125 3316.98876953125 3317.7109375 3318.44799804688 3319.15747070312 3319.8642578125 3320.5576171875 3321.22998046875 3321.88403320312 3322.53442382812 3323.2890625 3324.09765625 3324.89721679688 3325.90844726562 3327.41259765625 3329.04223632812 3330.08251953125 3330.13037109375 3329.23803710938 3327.833984375 3325.92724609375 3323.49462890625 3320.8017578125 3318.22607421875 3315.7490234375 3312.95190429688 3310.03149414062 3307.33715820312 3304.35888671875 3300.60791015625 3296.82885742188 3293.44921875 3289.6015625 3284.87866210938 3279.966796875 3275.123046875 3270.05688476562 3265.3564453125 3261.3037109375 3257.38647460938 3252.64868164062 3247.62768554688 3242.96166992188 3237.814453125 3231.619140625 3225.44018554688 3222.15625 3222.18334960938 3223.6015625 3224.998046875 3226.1572265625 3227.30493164062 3228.4716796875 3229.29028320312 3229.45678710938 3229.17895507812 3228.53564453125 3227.37158203125 3226.00927734375 3224.36767578125 3222.34326171875 3220.09643554688 3217.576171875 3214.49169921875 3211.24389648438 3208.29541015625 3205.31396484375 3202.02783203125 3198.890625 3196.21630859375 3193.61499023438 3190.86572265625 3188.24340820312 3185.84643554688 3183.53051757812 3181.828125 3181.4296875 3182.49633789062 3184.83374023438 3187.68090820312 3190.39672851562 3192.96411132812 3195.38012695312 3197.1591796875 3198.4375 3199.70947265625 3201.19360351562 3202.70068359375 3203.93969726562 3205.1572265625 3206.50927734375 3207.88916015625 3209.0263671875 3210.13427734375 3211.50073242188 3212.79614257812 3213.92065429688 3215.11401367188 3216.11474609375 3216.44580078125 3215.68286132812 3214.48950195312 3213.55004882812 -3.4e+38 -3.4e+38 -3.4e+38 -3.4e+38 -3.4e+38 -3.4e+38 -3.4e+38 -3.4e+38
-3.4e+38 -3.4e+38 -3.4e+38 3426.953125 3424.57153320312 3422.15771484375 3419.84301757812 3417.31420898438 3413.970703125 3409.8740234375 3406.01831054688 3402.21997070312 3398.646484375 3395.30786132812 3391.86157226562 3387.1708984375 3381.64672851562 3376.65185546875 3371.85229492188 3366.57495117188 3361.26171875 3356.69702148438 3352.2978515625 3347.30078125 3342.5732421875 3338.43383789062 3334.1923828125 3331.193359375 3330.38989257812 3329.90234375 3329.421875 3328.94555664062 3328.43969726562 3327.58764648438 3326.32202148438 3324.89135742188 3323.5244140625 3322.14819335938 3320.43310546875 3318.40625 3316.13696289062 3313.28564453125 3310.2939453125 3308.921875 3309.15380859375 3309.67407226562 3310.28735351562 3310.90454101562 3311.5390625 3312.24267578125 3312.98120117188 3313.68603515625 3314.3583984375 3315.08520507812 3315.82275390625 3316.50463867188 3317.173828125 3317.89770507812 3318.619140625 3319.26684570312 3319.94580078125 3320.79833984375 3321.75463867188 3322.75390625 3323.83911132812 3325.06469726562 3326.26293945312 3326.875 3326.54956054688 3325.40112304688 3323.82470703125 3321.93505859375 3319.62646484375 3316.96533203125 3314.4658203125 3312.07836914062 3309.296875 3306.25732421875 3303.31005859375 3300.11572265625 3296.27392578125 3292.44653320312 3288.87280273438 3284.8896484375 3280.11938476562 3274.95336914062 3270.15942382812 3265.66235351562 3261.52685546875 3257.68359375 3253.86376953125 3249.38916015625 3244.49072265625 3239.75341796875 3234.62255859375 3228.0146484375 3221.34741210938 3218.02392578125 3217.8408203125 3219.0615234375 3220.42919921875 3221.68310546875 3222.99609375 3224.27709960938 3225.11450195312 3225.32836914062 3225.0966796875 3224.44873046875 3223.548828125 3222.50219726562 3220.98510742188 3218.83837890625 3216.29809570312 3213.50903320312 3210.31225585938 3207.2470703125 3204.60424804688 3201.84033203125 3198.64501953125 3195.61645507812 3193.11791992188 3190.62524414062 3187.96411132812 3185.37280273438 3182.99096679688 3180.89306640625 3179.39282226562 3178.90405273438 3180.02563476562 3182.29711914062 3184.98193359375 3187.69165039062 3190.36450195312 3193.02172851562 3195.15234375 3196.62280273438 3197.89404296875 3199.28466796875 3200.63891601562 3201.80322265625 3202.94799804688 3204.15380859375 3205.34838867188 3206.25903320312 3207.08251953125 3207.98046875 3208.916015625 3209.92529296875 3211.1396484375 3212.04370117188 3212.33154296875 3212.00610351562 3211.396484375 3210.86669921875 3210.08642578125 -3.4e+38 -3.4e+38 -3.4e+38 -3.4e+38 -3.4e+38 -3.4e+38 -3.4e+38
-3.4e+38 -3.4e+38 -3.4e+38 3426.85571289062 3424.49682617188 3422.13940429688 3419.86181640625 3417.35888671875 3414.09375 3410.099609375 3406.26489257812 3402.39453125 3398.76611328125 3395.41943359375 3391.96508789062 3387.26489257812 3381.78076171875 3376.8798828125 3372.13232421875 3366.87426757812 3361.611328125 3357.03833007812 3352.39379882812 3346.90747070312 3341.748046875 3337.01293945312 3331.66186523438 3327.72436523438 3326.32299804688 3325.19604492188 3324.17260742188 3323.53881835938 3322.97534179688 3322.2890625 3321.41528320312 3320.49682617188 3319.50537109375 3318.3857421875 3316.79248046875 3314.53759765625 3312.07104492188 3309.25170898438 3306.48510742188 3305.5166015625 3306.08447265625 3306.86108398438 3307.63232421875 3308.34423828125 3309.03857421875 3309.74633789062 3310.48315429688 3311.173828125 3311.79711914062 3312.47290039062 3313.21655273438 3313.88525390625 3314.53637695312 3315.30297851562 3316.08715820312 3316.73022460938 3317.37963867188 3318.25561523438 3319.46459960938 3320.70751953125 3321.7314453125 3322.439453125 3322.85473632812 3322.87255859375 3322.2890625 3321.0419921875 3319.51538085938 3317.81030273438 3315.6767578125 3313.1611328125 3310.78002929688 3308.48266601562 3305.603515625 3302.26245117188 3299.07397460938 3295.67236328125 3291.72436523438 3287.73315429688 3283.90625 3279.6064453125 3274.60961914062 3269.68505859375 3265.5439453125 3261.63525390625 3257.78442382812 3253.91528320312 3250.02612304688 3245.69921875 3240.96362304688 3236.30493164062 3231.14331054688 3224.33276367188 3218.07836914062 3214.70288085938 3213.83251953125 3214.81005859375 3216.16455078125 3217.42358398438 3218.72045898438 3220.04272460938 3220.92822265625 3221.1640625 3221.01171875 3220.38549804688 3219.51098632812 3218.51440429688 3216.82446289062 3214.46948242188 3211.94482421875 3209.22802734375 3206.228515625 3203.42724609375 3200.97387695312 3198.36474609375 3195.32446289062 3192.5146484375 3190.19897460938 3187.79296875 3185.1689453125 3182.51098632812 3180.01782226562 3177.6103515625 3175.71875 3175.34716796875 3176.90649414062 3179.51782226562 3182.26977539062 3184.82543945312 3187.41088867188 3190.17041015625 3192.53979492188 3194.30834960938 3195.89990234375 3197.39868164062 3198.59399414062 3199.61206054688 3200.61450195312 3201.63110351562 3202.71313476562 3203.5498046875 3204.33715820312 3205.09228515625 3205.84838867188 3206.6591796875 3207.59985351562 3208.46264648438 3208.76953125 3208.53393554688 3208.22509765625 3207.85205078125 3207.11279296875 -3.4e+38 -3.4e+38 -3.4e+38 -3.4e+38 -3.4e+38 -3.4e+38 -3.4e+38
-3.4e+38 -3.4e+38 -3.4e+38 -3.4e+38 3424.49877929688 3422.15307617188 3419.89575195312 3417.41284179688 3414.19750976562 3410.30078125 3406.5234375 3402.61596679688 3398.91259765625 3395.51220703125 3392.02734375 3387.3134765625 3381.86059570312 3377.07568359375 3372.42431640625 3367.21484375 3361.98510742188 3357.37719726562 3352.57421875 3346.85546875 3341.45288085938 3336.68676757812 3331.4931640625 3326.65625 3323.28637695312 3320.70556640625 3318.69653320312 3318.14624023438 3317.74853515625 3317.37963867188 3316.89331054688 3316.32202148438 3315.533203125 3314.34204101562 3312.52490234375 3310.19506835938 3307.82739257812 3305.4970703125 3303.69165039062 3303.03100585938 3303.3037109375 3304.01025390625 3304.931640625 3305.76586914062 3306.49951171875 3307.25390625 3307.986328125 3308.66235351562 3309.30737304688 3309.99682617188 3310.66284179688 3311.2802734375 3311.92944335938 3312.71020507812 3313.5302734375 3314.26391601562 3315.04638671875 3316.05004882812 3317.37573242188 3318.75341796875 3319.76684570312 3320.08984375 3320.09008789062 3319.75537109375 3318.802734375 3317.30078125 3315.66577148438 3313.92822265625 3311.71752929688 3309.23291015625 3306.92333984375 3304.55883789062 3301.49169921875 3297.97192382812 3294.61840820312 3291.06713867188 3286.98559570312 3282.71752929688 3278.49487304688 3273.767578125 3268.83374023438 3264.60815429688 3261.04052734375 3257.4111328125 3253.64868164062 3249.76953125 3245.9306640625 3241.65698242188 3237.03393554688 3232.60205078125 3227.58276367188 3220.90576171875 3214.50512695312 3210.45751953125 3209.38159179688 3210.63720703125 3212.12255859375 3213.35815429688 3214.45434570312 3215.5908203125 3216.42724609375 3216.73608398438 3216.67041015625 3216.04907226562 3215.03857421875 3213.78466796875 3211.8818359375 3209.64404296875 3207.53100585938 3205.1474609375 3202.369140625 3199.7001953125 3197.36450195312 3194.91333007812 3192.10986328125 3189.5048828125 3187.35083007812 3185.03198242188 3182.30029296875 3179.52221679688 3176.93994140625 3174.14086914062 3171.93798828125 3171.861328125 3173.71118164062 3176.67822265625 3179.61474609375 3182.12084960938 3184.57739257812 3187.19262695312 3189.50927734375 3191.4931640625 3193.41162109375 3195.171875 3196.4404296875 3197.37890625 3198.30541992188 3199.271484375 3200.16870117188 3200.9375 3201.61157226562 3202.30786132812 3203.01416015625 3203.67919921875 3204.38549804688 3205.00219726562 3205.22607421875 3205.1220703125 3204.72314453125 3203.98095703125 3202.96337890625 -3.4e+38 -3.4e+38 -3.4e+38 -3.4e+38 -3.4e+38 -3.4e+38 -3.4e+38
-3.4e+38 -3.4e+38 -3.4e+38 -3.4e+38 3424.4921875 3422.17919921875 3419.95043945312 3417.46850585938 3414.30493164062 3410.482421875 3406.7373046875 3402.78979492188 3399.0263671875 3395.60986328125 3392.09350585938 3387.37475585938 3381.9306640625 3377.2412109375 3372.69506835938 3367.50903320312 3362.349609375 3357.71044921875 3352.77954101562 3347.05200195312 3341.63037109375 3336.93286132812 3332.03955078125 3326.89697265625 3322.35766601562 3318.7490234375 3315.92016601562 3314.81201171875 3314.1171875 3313.5791015625 3312.98608398438 3312.30395507812 3311.56396484375 3310.462890625 3308.59448242188 3306.25903320312 3304.14624023438 3302.25219726562 3300.732421875 3300.0634765625 3300.42407226562 3301.23510742188 3302.07250976562 3302.95092773438 3303.76806640625 3304.61987304688 3305.43139648438 3306.18359375 3306.859375 3307.47924804688 3308.03662109375 3308.56518554688 3309.14404296875 3309.87036132812 3310.77856445312 3311.74951171875 3312.83911132812 3314.08813476562 3315.40478515625 3316.71801757812 3317.57104492188 3317.60375976562 3317.4189453125 3316.89721679688 3315.62963867188 3313.87866210938 3312.06396484375 3310.15673828125 3307.81567382812 3305.32177734375 3302.96069335938 3300.41967773438 3297.142578125 3293.49267578125 3289.94262695312 3286.2099609375 3281.88793945312 3277.13916015625 3272.5703125 3267.92846679688 3263.54296875 3259.82739257812 3256.53466796875 3253.03247070312 3249.22827148438 3245.4609375 3241.74291992188 3237.44165039062 3232.77172851562 3228.37451171875 3223.66137695312 3217.373046875 3210.70288085938 3206.27001953125 3204.90991210938 3206.1552734375 3207.87353515625 3209.17846679688 3210.0517578125 3210.78344726562 3211.39038085938 3211.81494140625 3211.83276367188 3211.18920898438 3210.20849609375 3208.9326171875 3207.10522460938 3205.16333007812 3203.34375 3201.2392578125 3198.56494140625 3195.97241210938 3193.71337890625 3191.37524414062 3188.81103515625 3186.41235351562 3184.37573242188 3182.05444335938 3179.23876953125 3176.43505859375 3173.83837890625 3171.21313476562 3169.43627929688 3169.486328125 3171.15502929688 3173.97778320312 3176.94140625 3179.4541015625 3181.82104492188 3184.14331054688 3186.26708984375 3188.26928710938 3190.25512695312 3192.18212890625 3193.7001953125 3194.80541992188 3195.90551757812 3196.95288085938 3197.81420898438 3198.46166992188 3198.96655273438 3199.53198242188 3200.10620117188 3200.6435546875 3201.14135742188 3201.5185546875 3201.56323242188 3201.35864257812 3200.71484375 3199.6416015625 3198.40600585938 -3.4e+38 -3.4e+38 -3.4e+38 -3.4e+38 -3.4e+38 -3.4e+38 -3.4e+38
-3.4e+38 -3.4e+38 -3.4e+38 -3.4e+38 3424.48608398438 3422.20288085938 3420.02221679688 3417.55102539062 3414.42724609375 3410.69213867188 3406.96826171875 3402.99340820312 3399.14233398438 3395.72314453125 3392.20825195312 3387.48974609375 3382.06884765625 3377.41674804688 3372.91918945312 3367.76611328125 3362.68115234375 3358.01171875 3352.95971679688 3347.2060546875 3341.84545898438 3337.36010742188 3332.7255859375 3327.79736328125 3323.06225585938 3318.83203125 3314.64916992188 3312.07104492188 3311.07763671875 3310.2119140625 3309.4375 3308.68481445312 3307.97045898438 3307.03979492188 3305.193359375 3302.81225585938 3300.75 3298.68432617188 3296.77124023438 3296.20874023438 3297.0869140625 3298.15283203125 3299.19750976562 3300.158203125 3301.03173828125 3301.9775390625 3302.91918945312 3303.685546875 3304.36743164062 3304.96215820312 3305.48779296875 3305.93212890625 3306.36791992188 3307.04418945312 3308.080078125 3309.31787109375 3310.75122070312 3312.158203125 3313.30810546875 3314.25732421875 3314.77661132812 3314.62939453125 3314.16943359375 3313.4384765625 3312.04321289062 3310.2158203125 3308.40087890625 3306.45971679688 3304.06494140625 3301.48828125 3299.02661132812 3296.32104492188 3292.6943359375 3288.62768554688 3284.890625 3280.84130859375 3275.99365234375 3271.01318359375 3266.73022460938 3262.62622070312 3258.70458984375 3255.291015625 3252.27734375 3248.86572265625 3245.02465820312 3241.35620117188 3237.69165039062 3233.25415039062 3228.35522460938 3223.8232421875 3219.16552734375 3213.29638671875 3207.02587890625 3202.18823242188 3199.8623046875 3200.90185546875 3202.84912109375 3204.3740234375 3205.38891601562 3206.05078125 3206.55517578125 3207.01489257812 3207.11767578125 3206.51342773438 3205.65966796875 3204.57275390625 3202.931640625 3201.11669921875 3199.380859375 3197.41772460938 3194.8603515625 3192.33251953125 3190.10668945312 3187.79516601562 3185.36791992188 3183.13745117188 3181.150390625 3178.80981445312 3176.0205078125 3173.32958984375 3170.88134765625 3168.54541015625 3167.05981445312 3167.05297851562 3168.58569335938 3171.43725585938 3174.38330078125 3176.74853515625 3178.92626953125 3181.15551757812 3183.18212890625 3184.99340820312 3186.93798828125 3188.88720703125 3190.55517578125 3191.88818359375 3193.13989257812 3194.34008789062 3195.27661132812 3195.84741210938 3196.27197265625 3196.71752929688 3197.14111328125 3197.52880859375 3197.857421875 3198.10986328125 3198.09375 3197.78881835938 3197.05737304688 3195.80322265625 3194.56787109375 -3.4e+38 -3.4e+38 -3.4e+38 -3.4e+38 -3.4e+38 -3.4e+38 -3.4e+38
-3.4e+38 -3.4e+38 -3.4e+38 -3.4e+38 3424.4775390625 3422.208984375 3420.0390625 3417.59838867188 3414.53149414062 3410.84350585938 3407.13061523438 3403.140625 3399.24145507812 3395.80908203125 3392.27905273438 3387.59008789062 3382.23876953125 3377.60229492188 3373.12182617188 3368.05639648438 3362.99462890625 3358.31591796875 3353.20288085938 3347.41845703125 3342.076171875 3337.74365234375 3333.32861328125 3328.61645507812 3323.8525390625 3319.39868164062 3314.54174804688 3310.23583984375 3307.92993164062 3306.83325195312 3305.98413085938 3305.04321289062 3304.22290039062 3303.22534179688 3301.53393554688 3299.40844726562 3297.43212890625 3295.28662109375 3293.42358398438 3293.03955078125 3294.00732421875 3295.18505859375 3296.32275390625 3297.37475585938 3298.341796875 3299.33032226562 3300.287109375 3301.09106445312 3301.80004882812 3302.46923828125 3303.06860351562 3303.55908203125 3304.02807617188 3304.71069335938 3305.75903320312 3307.16918945312 3308.80834960938 3310.181640625 3310.97998046875 3311.40185546875 3311.46362304688 3311.13354492188 3310.51123046875 3309.59521484375 3308.17456054688 3306.46533203125 3304.78002929688 3302.876953125 3300.44165039062 3297.80590820312 3295.15087890625 3291.90991210938 3287.61743164062 3283.19018554688 3279.23681640625 3274.76879882812 3269.73168945312 3265.224609375 3261.47973632812 3257.76342773438 3254.177734375 3251.07641601562 3248.27099609375 3244.8740234375 3240.9462890625 3237.33911132812 3233.64697265625 3228.92626953125 3223.75610351562 3219.14404296875 3214.3896484375 3208.80395507812 3202.76293945312 3197.55688476562 3194.96948242188 3195.69116210938 3197.35595703125 3198.99145507812 3200.49047851562 3201.5146484375 3202.08618164062 3202.51391601562 3202.62524414062 3202.19946289062 3201.52514648438 3200.58471679688 3199.03955078125 3197.2333984375 3195.57250976562 3193.68334960938 3191.18798828125 3188.72216796875 3186.51708984375 3184.29443359375 3182.09326171875 3179.955078125 3177.95947265625 3175.58154296875 3172.8798828125 3170.31298828125 3167.8798828125 3165.28271484375 3163.4111328125 3163.318359375 3165.06958007812 3168.4638671875 3171.78344726562 3174.09741210938 3176.115234375 3178.29272460938 3180.25219726562 3181.98071289062 3183.8388671875 3185.75537109375 3187.52099609375 3188.95458984375 3190.2578125 3191.44287109375 3192.29443359375 3192.8720703125 3193.333984375 3193.75439453125 3194.1416015625 3194.46850585938 3194.67993164062 3194.79174804688 3194.71459960938 3194.36303710938 3193.58666992188 3192.41918945312 3191.2421875 -3.4e+38 -3.4e+38 -3.4e+38 -3.4e+38 -3.4e+38 -3.4e+38 -3.4e+38
-3.4e+38 -3.4e+38 -3.4e+38 -3.4e+38 3424.47143554688 3422.21508789062 3420.03881835938 3417.6220703125 3414.61254882812 3410.92895507812 3407.12915039062 3403.060546875 3399.1953125 3395.802734375 3392.3046875 3387.61767578125 3382.32836914062 3377.75610351562 3373.2607421875 3368.32543945312 3363.35864257812 3358.63745117188 3353.45751953125 3347.619140625 3342.30249023438 3338.0390625 3333.6982421875 3329.0673828125 3324.38793945312 3319.93725585938 3315.05297851562 3310.27075195312 3306.30151367188 3303.35229492188 3302.06103515625 3300.93579101562 3299.96704101562 3298.98388671875 3297.6865234375 3296.04638671875 3294.18798828125 3292.240234375 3290.77880859375 3290.49560546875 3291.13354492188 3292.26171875 3293.53930664062 3294.64794921875 3295.66357421875 3296.70434570312 3297.68823242188 3298.54174804688 3299.28125 3300.083984375 3300.83251953125 3301.41137695312 3302.00415039062 3302.84423828125 3304.02978515625 3305.50537109375 3307.15283203125 3308.47387695312 3308.96923828125 3309.04125976562 3308.767578125 3308.12451171875 3307.24340820312 3306.12963867188 3304.64892578125 3302.951171875 3301.2421875 3299.3349609375 3296.8994140625 3294.01513671875 3290.65942382812 3286.56298828125 3281.84692382812 3277.37622070312 3273.20947265625 3268.64697265625 3264.06591796875 3260.12841796875 3256.6884765625 3253.248046875 3249.97192382812 3247.02709960938 3244.14672851562 3240.6103515625 3236.65405273438 3233.14135742188 3229.34326171875 3224.318359375 3219.00268554688 3214.32104492188 3209.59692382812 3204.15771484375 3198.32299804688 3193.83764648438 3191.552734375 3191.37548828125 3192.50561523438 3194.09033203125 3195.84741210938 3197.16625976562 3197.77880859375 3198.17260742188 3198.22705078125 3197.89233398438 3197.48046875 3196.75903320312 3195.18969726562 3193.38427734375 3191.74072265625 3189.875 3187.48291015625 3185.11547851562 3183.16455078125 3181.18774414062 3179.138671875 3177.07861328125 3175.07568359375 3172.65625 3169.9091796875 3167.298828125 3164.82861328125 3162.01586914062 3159.78149414062 3159.51489257812 3161.2138671875 3164.91748046875 3168.5146484375 3171.15014648438 3173.39868164062 3175.46875 3177.3486328125 3179.0400390625 3180.873046875 3182.82641601562 3184.63232421875 3186.13305664062 3187.35693359375 3188.34057617188 3189.1376953125 3189.80078125 3190.32788085938 3190.74487304688 3191.10424804688 3191.35815429688 3191.45971679688 3191.45092773438 3191.31372070312 3190.91479492188 3190.10864257812 3189.03857421875 3187.876953125 -3.4e+38 -3.4e+38 -3.4e+38 -3.4e+38 -3.4e+38 -3.4e+38 -3.4e+38
-3.4e+38 -3.4e+38 -3.4e+38 -3.4e+38 3424.46020507812 3422.19482421875 3420.00390625 3417.61450195312 3414.61108398438 3410.87939453125 3406.984375 3402.8505859375 3399.0234375 3395.72192382812 3392.2802734375 3387.5625 3382.19897460938 3377.66967773438 3373.3203125 3368.57275390625 3363.70971679688 3358.9716796875 3353.72875976562 3347.8466796875 3342.49389648438 3338.19482421875 3333.77368164062 3329.09423828125 3324.66284179688 3320.39965820312 3315.56884765625 3310.65966796875 3306.138671875 3301.35864257812 3297.60620117188 3296.14794921875 3295.71508789062 3295.13208007812 3293.94775390625 3292.52661132812 3290.8017578125 3288.84350585938 3287.3544921875 3287.05834960938 3287.81860351562 3289.06884765625 3290.49975585938 3291.75805664062 3292.92431640625 3294.14697265625 3295.20776367188 3296.04663085938 3296.85888671875 3297.7568359375 3298.57836914062 3299.29833984375 3300.13891601562 3301.2412109375 3302.57690429688 3304.08959960938 3305.73803710938 3306.92333984375 3307.1611328125 3307.06103515625 3306.59155273438 3305.60424804688 3304.40307617188 3303.10766601562 3301.47216796875 3299.59326171875 3297.76220703125 3295.76147460938 3292.92211914062 3289.09936523438 3284.95727539062 3280.54028320312 3275.93872070312 3271.52294921875 3267.39794921875 3263.13842773438 3258.99731445312 3255.38403320312 3252.27734375 3249.05224609375 3245.78442382812 3242.73266601562 3239.59204101562 3235.8427734375 3231.9404296875 3228.44482421875 3224.59204101562 3219.47631835938 3214.09448242188 3209.47583007812 3204.86303710938 3199.64208984375 3194.64697265625 3190.72412109375 3187.7451171875 3187.03149414062 3188.19189453125 3189.66357421875 3191.33740234375 3192.69287109375 3193.3916015625 3193.80590820312 3193.8349609375 3193.55883789062 3193.23413085938 3192.5751953125 3191.14306640625 3189.52954101562 3188.03002929688 3186.17700195312 3183.95971679688 3181.9111328125 3180.22534179688 3178.42407226562 3176.4140625 3174.4189453125 3172.33984375 3169.76342773438 3166.95288085938 3164.38452148438 3161.86059570312 3159.16284179688 3157.20556640625 3156.90307617188 3158.12524414062 3161.12768554688 3164.69311523438 3167.70678710938 3170.4169921875 3172.68359375 3174.43432617188 3176.02661132812 3177.783203125 3179.73291015625 3181.62890625 3183.23779296875 3184.45922851562 3185.28784179688 3185.98193359375 3186.638671875 3187.28955078125 3187.81372070312 3188.04516601562 3188.1025390625 3188.13256835938 3188.046875 3187.89086914062 3187.50634765625 3186.681640625 3185.57666015625 3184.43334960938 -3.4e+38 -3.4e+38 -3.4e+38 -3.4e+38 -3.4e+38 -3.4e+38 -3.4e+38
-3.4e+38 -3.4e+38 -3.4e+38 -3.4e+38 3424.40576171875 3422.0888671875 3419.87353515625 3417.42138671875 3414.38598632812 3410.64672851562 3406.73046875 3402.57421875 3398.77563476562 3395.5048828125 3392.0078125 3387.19604492188 3381.81079101562 3377.36059570312 3373.154296875 3368.603515625 3363.865234375 3359.18017578125 3353.94189453125 3348.04516601562 3342.67358398438 3338.28955078125 3333.76000976562 3329.08813476562 3324.86254882812 3320.810546875 3316.03466796875 3310.873046875 3306.11279296875 3300.84204101562 3295.40771484375 3292.50415039062 3291.86474609375 3291.20776367188 3290.09033203125 3288.7587890625 3287.220703125 3285.18188476562 3283.32348632812 3283.12768554688 3284.33447265625 3285.79223632812 3287.34155273438 3288.712890625 3289.96728515625 3291.31030273438 3292.572265625 3293.60375976562 3294.5791015625 3295.50830078125 3296.3662109375 3297.22680664062 3298.30151367188 3299.64306640625 3301.06982421875 3302.55322265625 3304.1083984375 3304.98706054688 3305.02075195312 3304.82348632812 3304.18603515625 3303.00219726562 3301.62182617188 3300.14404296875 3298.29248046875 3296.21362304688 3294.07763671875 3291.43237304688 3287.5498046875 3282.95532226562 3278.76123046875 3274.5439453125 3270.14575195312 3265.884765625 3262.00219726562 3258.05541992188 3254.240234375 3250.98315429688 3248.0673828125 3244.814453125 3241.38842773438 3238.123046875 3234.81225585938 3230.95581054688 3226.95434570312 3223.37084960938 3219.48803710938 3214.38403320312 3209.22045898438 3205.09301757812 3200.88012695312 3196.05932617188 3191.47265625 3187.48608398438 3184.04174804688 3183.044921875 3184.03686523438 3185.23974609375 3186.71337890625 3188.0439453125 3188.8447265625 3189.21801757812 3189.27661132812 3189.15600585938 3188.77758789062 3188.0185546875 3186.84790039062 3185.609375 3184.46826171875 3182.908203125 3180.9287109375 3179.09545898438 3177.55346679688 3175.88720703125 3173.92553710938 3171.845703125 3169.5283203125 3166.80541992188 3164.00219726562 3161.42651367188 3158.90600585938 3156.36206054688 3154.41577148438 3153.93896484375 3155.15258789062 3157.67919921875 3160.85131835938 3163.85107421875 3166.74731445312 3169.30541992188 3171.2802734375 3172.94409179688 3174.65991210938 3176.46630859375 3178.1845703125 3179.69482421875 3180.96069335938 3181.9638671875 3182.73510742188 3183.47998046875 3184.2998046875 3184.88208007812 3185.0263671875 3184.95727539062 3184.87426757812 3184.73315429688 3184.58715820312 3184.26538085938 3183.34692382812 3182.05590820312 3180.81469726562 -3.4e+38 -3.4e+38 -3.4e+38 -3.4e+38 -3.4e+38 -3.4e+38 -3.4e+38
-3.4e+38 -3.4e+38 -3.4e+38 -3.4e+38 3424.234375 3421.88549804688 3419.63061523438 3417.08032226562 3413.99609375 3410.3115234375 3406.46020507812 3402.3330078125 3398.52783203125 3395.20166015625 3391.5390625 3386.62182617188 3381.36254882812 3376.97534179688 3372.77783203125 3368.27612304688 3363.66918945312 3359.20727539062 3354.08325195312 3348.23559570312 3342.865234375 3338.37280273438 3333.75903320312 3329.0849609375 3324.9599609375 3321.05249023438 3316.29638671875 3310.958984375 3306.06884765625 3300.79565429688 3294.88671875 3290.4248046875 3288.46850585938 3287.29541015625 3285.91552734375 3284.87182617188 3283.70629882812 3281.85083007812 3280.19848632812 3280.05712890625 3281.10766601562 3282.52807617188 3284.06591796875 3285.453125 3286.75146484375 3288.16650390625 3289.55249023438 3290.74682617188 3291.88256835938 3293.1171875 3294.2333984375 3295.2666015625 3296.56567382812 3298.05517578125 3299.44287109375 3300.66845703125 3301.89306640625 3302.47631835938 3302.44384765625 3302.15112304688 3301.37377929688 3300.11938476562 3298.70263671875 3297.07153320312 3294.9033203125 3292.24780273438 3289.30224609375 3285.80029296875 3281.2802734375 3276.748046875 3272.8369140625 3268.77954101562 3264.54125976562 3260.51806640625 3256.916015625 3253.28125 3249.79663085938 3246.7158203125 3243.74194335938 3240.34106445312 3236.75170898438 3233.38696289062 3229.98071289062 3225.98950195312 3221.90014648438 3218.22729492188 3214.19775390625 3209.35327148438 3204.9833984375 3201.51025390625 3197.63256835938 3192.93090820312 3188.34594726562 3184.58569335938 3181.62231445312 3180.32983398438 3180.53100585938 3181.27099609375 3182.43237304688 3183.74682617188 3184.49462890625 3184.66943359375 3184.73266601562 3184.75390625 3184.50390625 3183.7822265625 3182.84228515625 3181.94848632812 3181.056640625 3179.71337890625 3177.98095703125 3176.37573242188 3174.99389648438 3173.51879882812 3171.52221679688 3169.07275390625 3166.603515625 3163.85961914062 3161.01123046875 3158.44775390625 3155.93676757812 3153.13354492188 3150.63940429688 3149.76220703125 3151.06713867188 3154.05029296875 3157.24096679688 3160.12426757812 3163.02099609375 3165.76025390625 3167.93823242188 3169.705078125 3171.48388671875 3173.12841796875 3174.45922851562 3175.7744140625 3177.12744140625 3178.31396484375 3179.26342773438 3180.10693359375 3180.93920898438 3181.52490234375 3181.68212890625 3181.607421875 3181.41870117188 3181.2216796875 3181.00512695312 3180.58447265625 3179.64282226562 3178.35083007812 3177.0732421875 -3.4e+38 -3.4e+38 -3.4e+38 -3.4e+38 -3.4e+38 -3.4e+38 -3.4e+38
-3.4e+38 -3.4e+38 -3.4e+38 -3.4e+38 3423.8544921875 3421.57568359375 3419.34008789062 3416.7412109375 3413.54833984375 3409.92138671875 3406.21166992188 3402.11083984375 3398.24584960938 3394.81298828125 3391.021484375 3386.09790039062 3380.92236328125 3376.6005859375 3372.3310546875 3367.79638671875 3363.3662109375 3359.08081054688 3354.04541015625 3348.29223632812 3343.00244140625 3338.43579101562 3333.65356445312 3328.919921875 3324.81787109375 3320.8251953125 3316.01000976562 3310.81640625 3306.01928710938 3300.794921875 3294.96411132812 3289.88012695312 3286.33984375 3283.63647460938 3281.75463867188 3281.1337890625 3280.26611328125 3278.73168945312 3277.44604492188 3277.29248046875 3278.04248046875 3279.34204101562 3280.8193359375 3282.224609375 3283.52465820312 3284.87890625 3286.24755859375 3287.48095703125 3288.765625 3290.22265625 3291.71337890625 3293.2373046875 3294.880859375 3296.45654296875 3297.7119140625 3298.59912109375 3299.37255859375 3299.65258789062 3299.498046875 3299.1416015625 3298.41259765625 3297.12841796875 3295.62719726562 3293.58837890625 3290.46557617188 3286.79223632812 3283.234375 3279.56982421875 3275.22143554688 3270.95654296875 3267.197265625 3263.30126953125 3259.24926757812 3255.46704101562 3252.2060546875 3248.837890625 3245.4560546875 3242.34301757812 3239.2802734375 3235.74731445312 3231.98291015625 3228.50048828125 3225.00048828125 3220.97290039062 3217.00415039062 3213.29809570312 3209.28857421875 3205.12280273438 3201.50659179688 3198.3408203125 3194.52124023438 3189.74780273438 3185.35375976562 3181.96508789062 3179.0966796875 3177.27563476562 3177.02612304688 3177.58251953125 3178.548828125 3179.62377929688 3180.263671875 3180.53002929688 3180.66845703125 3180.73657226562 3180.6220703125 3180.158203125 3179.43872070312 3178.60229492188 3177.69091796875 3176.56372070312 3175.15576171875 3173.72265625 3172.31689453125 3170.62817382812 3168.50756835938 3166.119140625 3163.67919921875 3160.87939453125 3157.98046875 3155.361328125 3152.79760742188 3149.8994140625 3147.29711914062 3146.33349609375 3147.50708007812 3150.43188476562 3153.666015625 3156.62231445312 3159.65795898438 3162.44311523438 3164.59301757812 3166.4189453125 3168.24877929688 3169.80688476562 3170.9609375 3172.04663085938 3173.28295898438 3174.54443359375 3175.615234375 3176.53930664062 3177.27709960938 3177.71826171875 3177.91455078125 3177.94409179688 3177.81811523438 3177.52270507812 3177.12890625 3176.5673828125 3175.62548828125 3174.4228515625 3173.22973632812 -3.4e+38 -3.4e+38 -3.4e+38 -3.4e+38 -3.4e+38 -3.4e+38 -3.4e+38
-3.4e+38 -3.4e+38 -3.4e+38 -3.4e+38 3423.30712890625 3421.12524414062 3418.97387695312 3416.37719726562 3413.05395507812 3409.46606445312 3405.90771484375 3401.88793945312 3397.85327148438 3394.37915039062 3390.52368164062 3385.5078125 3380.39794921875 3376.125 3371.85009765625 3367.36596679688 3363.03076171875 3358.888671875 3353.97265625 3348.3212890625 3343.14282226562 3338.50903320312 3333.4619140625 3328.56713867188 3324.52856445312 3320.4326171875 3315.57836914062 3310.5849609375 3305.91821289062 3300.8125 3295.1728515625 3290.09399414062 3286.07788085938 3282.2841796875 3279.21411132812 3277.94018554688 3276.68823242188 3275.01611328125 3273.78149414062 3273.76538085938 3274.66333007812 3276.05029296875 3277.60424804688 3278.98461914062 3280.24951171875 3281.52026367188 3282.76025390625 3283.93237304688 3285.24169921875 3286.86669921875 3288.80004882812 3290.873046875 3293.00073242188 3294.85009765625 3296.1474609375 3296.89721679688 3297.26318359375 3297.19873046875 3296.90966796875 3296.49536132812 3295.64697265625 3293.98974609375 3291.67553710938 3288.5576171875 3284.42700195312 3280.44775390625 3277.0703125 3273.54541015625 3269.400390625 3265.431640625 3261.89868164062 3258.162109375 3254.30834960938 3250.8173828125 3247.76416015625 3244.46752929688 3241.06127929688 3237.890625 3234.74926757812 3231.04565429688 3227.0751953125 3223.53393554688 3220.09936523438 3216.27783203125 3212.49072265625 3208.93823242188 3205.3408203125 3201.71875 3198.29663085938 3195.06323242188 3191.16088867188 3186.58959960938 3182.49609375 3179.17749023438 3175.86181640625 3173.48803710938 3173.23608398438 3173.841796875 3174.63647460938 3175.44067382812 3176.02416992188 3176.48681640625 3176.82641601562 3177.01953125 3177.07641601562 3176.77978515625 3176.21508789062 3175.55737304688 3174.767578125 3173.7373046875 3172.35815429688 3170.75903320312 3169.1259765625 3167.20092773438 3165.01293945312 3162.86572265625 3160.67602539062 3157.84252929688 3154.80810546875 3152.19116210938 3149.58862304688 3146.62866210938 3144.11157226562 3143.21850585938 3144.20751953125 3146.81762695312 3149.97485351562 3152.990234375 3156.18579101562 3159.16845703125 3161.45166015625 3163.27099609375 3165.02294921875 3166.5888671875 3167.75390625 3168.7802734375 3169.90991210938 3171.03466796875 3172.04516601562 3172.96948242188 3173.576171875 3173.86279296875 3174.11889648438 3174.30322265625 3174.20043945312 3173.72583007812 3173.19653320312 3172.59790039062 3171.72265625 3170.60083007812 3169.48901367188 -3.4e+38 -3.4e+38 -3.4e+38 -3.4e+38 -3.4e+38 -3.4e+38 -3.4e+38
-3.4e+38 -3.4e+38 -3.4e+38 -3.4e+38 3422.6015625 3420.51904296875 3418.48828125 3415.98046875 3412.50219726562 3408.732421875 3405.03442382812 3401.13671875 3397.35961914062 3393.91015625 3389.98193359375 3384.93505859375 3379.93212890625 3375.72241210938 3371.43188476562 3366.9208984375 3362.57177734375 3358.52734375 3353.73364257812 3348.16528320312 3343.14477539062 3338.4326171875 3333.21557617188 3328.28369140625 3324.14306640625 3319.93237304688 3315.10766601562 3310.2919921875 3305.79638671875 3300.84887695312 3295.38989257812 3290.5107421875 3286.50439453125 3282.314453125 3278.08618164062 3275.16552734375 3273.03247070312 3270.91552734375 3269.80102539062 3270.06591796875 3271.13891601562 3272.61596679688 3274.25341796875 3275.61791992188 3276.8974609375 3278.21118164062 3279.41259765625 3280.47583007812 3281.63623046875 3283.2255859375 3285.47436523438 3288.0126953125 3290.63720703125 3293.02709960938 3294.66796875 3295.45068359375 3295.59326171875 3295.27490234375 3294.75634765625 3294.013671875 3292.3203125 3289.35375976562 3285.79052734375 3282.04907226562 3278.20751953125 3274.72998046875 3271.53588867188 3267.91455078125 3263.88525390625 3260.2021484375 3256.8828125 3253.31811523438 3249.6767578125 3246.36328125 3243.36987304688 3240.0625 3236.58764648438 3233.34155273438 3230.029296875 3226.10205078125 3222.12646484375 3218.83325195312 3215.68212890625 3212.1044921875 3208.49243164062 3205.25073242188 3202.00073242188 3198.53198242188 3195.06909179688 3191.68017578125 3187.74829101562 3183.44360351562 3179.55541992188 3176.19580078125 3172.6748046875 3169.8603515625 3169.19262695312 3169.62084960938 3170.38110351562 3171.26147460938 3171.96923828125 3172.58618164062 3173.18432617188 3173.61694335938 3173.78540039062 3173.53344726562 3173.08935546875 3172.59790039062 3171.84594726562 3170.66845703125 3169.17138671875 3167.43188476562 3165.64990234375 3163.568359375 3161.3740234375 3159.39453125 3157.31103515625 3154.53881835938 3151.5322265625 3148.93627929688 3146.271484375 3143.09448242188 3139.97290039062 3138.25756835938 3139.4189453125 3142.92114257812 3146.22534179688 3149.2021484375 3152.44799804688 3155.57690429688 3158.18286132812 3160.27514648438 3162.07055664062 3163.5966796875 3164.79541015625 3165.84008789062 3166.91064453125 3167.93969726562 3168.79467773438 3169.53686523438 3170.02783203125 3170.3125 3170.5673828125 3170.76782226562 3170.66870117188 3170.1640625 3169.60717773438 3168.95849609375 3168.09887695312 3167.06420898438 3165.94799804688 -3.4e+38 -3.4e+38 -3.4e+38 -3.4e+38 -3.4e+38 -3.4e+38 -3.4e+38
-3.4e+38 -3.4e+38 -3.4e+38 -3.4e+38 3421.75903320312 3419.73388671875 3417.85229492188 3415.29565429688 3411.64770507812 3407.7646484375 3403.93774414062 3400.15161132812 3396.63940429688 3393.42260742188 3389.4384765625 3384.263671875 3379.45825195312 3375.25610351562 3370.89477539062 3366.4501953125 3362.15405273438 3357.99438476562 3353.07446289062 3347.56640625 3342.65185546875 3338.01293945312 3332.84448242188 3327.9072265625 3323.65649414062 3319.36791992188 3314.603515625 3309.9365234375 3305.64575195312 3300.81298828125 3295.56591796875 3290.83715820312 3286.77368164062 3282.51782226562 3277.92846679688 3274.02661132812 3271.01953125 3268.15747070312 3266.7255859375 3266.88940429688 3267.7705078125 3269.24243164062 3270.8955078125 3272.28833007812 3273.6298828125 3275.01440429688 3276.28759765625 3277.3505859375 3278.44995117188 3279.96484375 3282.18383789062 3284.77490234375 3287.66186523438 3290.53515625 3292.59887695312 3293.5263671875 3293.62158203125 3292.92456054688 3291.60717773438 3289.81518554688 3286.72290039062 3282.771484375 3279.30590820312 3276.21435546875 3273.05053710938 3269.62622070312 3266.21655273438 3262.52197265625 3258.6494140625 3255.15307617188 3252.03466796875 3248.65307617188 3245.16357421875 3241.98388671875 3239.013671875 3235.64672851562 3232.02587890625 3228.5888671875 3225.07690429688 3221.1689453125 3217.60205078125 3214.64990234375 3211.66455078125 3208.26440429688 3204.95654296875 3201.97729492188 3198.85229492188 3195.330078125 3191.796875 3188.45483398438 3184.57641601562 3180.32373046875 3176.48706054688 3173.1640625 3169.47387695312 3165.2744140625 3163.14868164062 3163.9755859375 3165.38891601562 3166.67529296875 3167.63842773438 3168.49096679688 3169.3291015625 3169.93359375 3170.14135742188 3169.92016601562 3169.4814453125 3168.98022460938 3168.2392578125 3167.06567382812 3165.5009765625 3163.810546875 3162.08227539062 3160.04272460938 3157.89526367188 3155.96606445312 3153.88696289062 3151.1630859375 3148.21826171875 3145.52734375 3142.67333984375 3139.263671875 3136.1865234375 3134.70288085938 3135.72875976562 3139.08544921875 3142.51196289062 3145.46752929688 3148.61279296875 3151.75317382812 3154.48266601562 3156.80395507812 3158.99755859375 3160.802734375 3162.06396484375 3163.0576171875 3164.04467773438 3164.96215820312 3165.63671875 3166.18408203125 3166.61694335938 3166.93872070312 3167.14770507812 3167.29467773438 3167.19702148438 3166.81127929688 3166.31079101562 3165.60009765625 3164.68798828125 3163.68212890625 3162.5556640625 -3.4e+38 -3.4e+38 -3.4e+38 -3.4e+38 -3.4e+38 -3.4e+38 -3.4e+38
-3.4e+38 -3.4e+38 -3.4e+38 -3.4e+38 3421.03955078125 3419.05590820312 3417.13989257812 3414.3271484375 3410.4267578125 3406.55078125 3402.81860351562 3399.22485351562 3395.84838867188 3392.8271484375 3388.71337890625 3383.20727539062 3378.44555664062 3374.4609375 3370.31909179688 3365.99267578125 3361.576171875 3357.310546875 3352.3095703125 3346.69360351562 3341.8515625 3337.37084960938 3332.40234375 3327.4150390625 3322.92578125 3318.55078125 3313.91943359375 3309.46362304688 3305.36499023438 3300.677734375 3295.67700195312 3291.14599609375 3287.02685546875 3282.69653320312 3278.1435546875 3274.03540039062 3270.49438476562 3266.68969726562 3264.0439453125 3263.7333984375 3264.50170898438 3265.892578125 3267.5556640625 3269.03588867188 3270.46801757812 3271.94750976562 3273.2880859375 3274.45434570312 3275.7119140625 3277.33520507812 3279.36450195312 3281.6259765625 3284.40844726562 3287.26733398438 3289.216796875 3290.12768554688 3290.03662109375 3288.73095703125 3286.513671875 3283.70141601562 3280.10986328125 3276.75463867188 3274.19311523438 3271.5068359375 3268.15356445312 3264.37280273438 3260.802734375 3257.19897460938 3253.59350585938 3250.35473632812 3247.39892578125 3244.1240234375 3240.7548828125 3237.67431640625 3234.65405273438 3231.1005859375 3227.21484375 3223.67504882812 3220.32299804688 3216.82446289062 3213.62817382812 3210.79809570312 3207.87280273438 3204.68310546875 3201.60986328125 3198.82983398438 3195.67065429688 3191.98974609375 3188.49560546875 3185.283203125 3181.48315429688 3177.19848632812 3173.37451171875 3169.861328125 3165.59033203125 3160.94897460938 3158.5517578125 3158.89111328125 3160.22241210938 3161.70776367188 3162.97436523438 3164.0712890625 3164.98266601562 3165.55200195312 3165.73950195312 3165.69360351562 3165.46240234375 3164.94409179688 3164.22338867188 3163.15380859375 3161.81982421875 3160.36352539062 3158.6455078125 3156.640625 3154.54907226562 3152.62719726562 3150.58349609375 3147.86303710938 3144.78344726562 3141.93798828125 3138.93798828125 3135.8037109375 3133.53369140625 3132.60498046875 3133.33837890625 3135.81787109375 3138.95043945312 3141.923828125 3144.98876953125 3147.93188476562 3150.43896484375 3152.8173828125 3155.32763671875 3157.58471679688 3159.13598632812 3160.236328125 3161.21215820312 3162.05639648438 3162.55810546875 3162.91723632812 3163.26611328125 3163.5576171875 3163.751953125 3163.88842773438 3163.798828125 3163.47583007812 3163.029296875 3162.34594726562 3161.38452148438 3160.37573242188 3159.27905273438 -3.4e+38 -3.4e+38 -3.4e+38 -3.4e+38 -3.4e+38 -3.4e+38 -3.4e+38
-3.4e+38 -3.4e+38 -3.4e+38 -3.4e+38 3420.38452148438 3418.42114257812 3416.28857421875 3413.11474609375 3409.08178710938 3405.3486328125 3401.77197265625 3398.25073242188 3394.92407226562 3391.73120117188 3387.28735351562 3381.76977539062 3377.09033203125 3373.34643554688 3369.41918945312 3365.13745117188 3360.70043945312 3356.3759765625 3351.31396484375 3345.71215820312 3341.0009765625 3336.61181640625 3331.65966796875 3326.6298828125 3322.00390625 3317.5126953125 3313.02758789062 3308.75024414062 3304.75244140625 3300.275390625 3295.5966796875 3291.2734375 3287.18725585938 3282.8154296875 3278.28588867188 3274.09545898438 3270.19213867188 3265.71337890625 3261.671875 3260.2451171875 3260.81176757812 3262.33544921875 3264.16455078125 3265.73950195312 3267.30688476562 3268.92260742188 3270.3642578125 3271.638671875 3273.05541992188 3274.81176757812 3276.79248046875 3278.81762695312 3281.302734375 3283.68017578125 3285.01440429688 3285.46069335938 3284.81005859375 3283.08666992188 3280.701171875 3277.9580078125 3275.08374023438 3272.34814453125 3269.64038085938 3266.54443359375 3262.75024414062 3258.84619140625 3255.47387695312 3252.16479492188 3248.85131835938 3245.7841796875 3242.96704101562 3239.80541992188 3236.4794921875 3233.32983398438 3230.11376953125 3226.25952148438 3222.2763671875 3219.06298828125 3216.15087890625 3213.037109375 3209.984375 3207.18481445312 3204.30712890625 3201.24975585938 3198.30737304688 3195.51586914062 3192.15893554688 3188.38891601562 3184.93823242188 3181.7451171875 3177.94775390625 3173.791015625 3170.02905273438 3166.26098632812 3161.87182617188 3157.91674804688 3155.82275390625 3155.28271484375 3155.82495117188 3156.95336914062 3158.35620117188 3159.71435546875 3160.7119140625 3160.97827148438 3161.15966796875 3161.294921875 3161.25439453125 3160.86743164062 3160.2568359375 3159.34692382812 3158.09399414062 3156.7451171875 3155.18603515625 3153.25952148438 3151.26318359375 3149.48193359375 3147.4423828125 3144.439453125 3141.20703125 3138.28393554688 3135.5009765625 3133.05493164062 3131.35571289062 3130.86889648438 3131.49658203125 3133.22436523438 3135.77416992188 3138.60180664062 3141.53735351562 3144.24340820312 3146.49194335938 3148.69287109375 3151.22241210938 3153.6845703125 3155.50415039062 3156.90747070312 3158.16430664062 3159.05908203125 3159.47680664062 3159.74194335938 3160.013671875 3160.28051757812 3160.5 3160.66796875 3160.55004882812 3160.19287109375 3159.80200195312 3159.18310546875 3158.20922851562 3157.20751953125 3156.12670898438 -3.4e+38 -3.4e+38 -3.4e+38 -3.4e+38 -3.4e+38 -3.4e+38 -3.4e+38
